3.349858280348354089e+00 3.350408391664849717e+00 3.350967369514084471e+00 3.351535138459484031e+00 3.352111621796271645e+00 3.352696741557988247e+00 3.353290418523169780e+00 3.353892572222177293e+00 3.354503120944190009e+00 3.355121981744354720e+00 3.355749070451098159e+00 3.356384301673602799e+00 3.357027588809447405e+00 3.357678844052415457e+00 3.358337978400469659e+00 3.359004901663898757e+00 3.359679522473634883e+00 3.360361748289744099e+00 3.361051485410094131e+00 3.361748638979195292e+00 3.362453112997222160e+00 3.363164810329213328e+00 3.363883632714455896e+00 3.364609480776047601e+00 3.365342254030648572e+00 3.366081850898413830e+00 3.366828168713119851e+00 3.367581103732471437e+00 3.368340551148607531e+00 3.369106405098792667e+00 3.369878558676301594e+00 3.370656903941502858e+00 3.371441331933132002e+00 3.372231732679765503e+00 3.373027995211490548e+00 3.373830007571774203e+00 3.374637656829533316e+00 3.375450829091406479e+00 3.376269409514224495e+00 3.377093282317686462e+00 3.377922330797242356e+00 3.378756437337175011e+00 3.379595483423891267e+00 3.380439349659420056e+00 3.381287915775113451e+00 3.382141060645559971e+00 3.382998662302704407e+00 3.383860597950173243e+00 3.384726743977816366e+00 3.385596975976449041e+00 3.386471168752811511e+00 3.387349196344732860e+00 3.388230932036508936e+00 3.389116248374488549e+00 3.390005017182867064e+00 3.390897109579697144e+00 3.391792395993100673e+00 3.392690746177696504e+00 3.393592029231234264e+00 3.394496113611437771e+00 3.395402867153057169e+00 3.396312157085126682e+00 3.397223850048432858e+00 3.398137812113184886e+00 3.399053908796893175e+00 3.399972005082448678e+00 3.400891965436412701e+00 3.401813653827498118e+00 3.402736933745262426e+00 3.403661668218989966e+00 3.404587719836781545e+00 3.405514950764833682e+00 3.406443222766914580e+00 3.407372397224034621e+00 3.408302335154307805e+00 3.409232897232998383e+00 3.410163943812761111e+00 3.411095334944060919e+00 3.412026930395777757e+00 3.412958589675991306e+00 3.413890172052943761e+00 3.414821536576175820e+00 3.415752542097838074e+00 3.416683047294170272e+00 3.417612910687146233e+00 3.418541990666283947e+00 3.419470145510616899e+00 3.420397233410818583e+00 3.421323112491486462e+00 3.422247640833570692e+00 3.423170676496953391e+00 3.424092077543166912e+00 3.287140219887442427e+00 3.286896203942106798e+00 3.286652724296299954e+00 3.286409817378721510e+00 3.286167519516197899e+00 3.285925866928366634e+00 3.285684895722389420e+00 3.254829225792255532e+00 3.255141678681117590e+00 3.255453481163327556e+00 3.255764585878041295e+00 3.256074945543385279e+00 3.256384512963828914e+00 3.256693241037553310e+00 3.257001082763824051e+00 3.257307991250367518e+00 3.257613919720738771e+00 3.257918821521696984e+00 3.258222650130565334e+00 3.258525359162601109e+00 3.258826902378342716e+00 3.259127233690965575e+00 3.259426307173615811e+00 3.259724077066743497e+00 3.260020497785418137e+00 3.260315523926635706e+00 3.260609110276607936e+00
3.330970619107151531e+00 3.331501440552473881e+00 3.332040812338070257e+00 3.332588661421008513e+00 3.333144913533621079e+00 3.333709493189969120e+00 3.334282323692465244e+00 3.334863327138643196e+00 3.335452424428082541e+00 3.336049535269490107e+00 3.336654578187938203e+00 3.337267470532258251e+00 3.337888128482600969e+00 3.338516467058149306e+00 3.339152400125005471e+00 3.339795840404232052e+00 3.340446699480065895e+00 3.341104887808295842e+00 3.341770314724814561e+00 3.342442888454334682e+00 3.343122516119280796e+00 3.343809103748855538e+00 3.344502556288276640e+00 3.345202777608194289e+00 3.345909670514283452e+00 3.346623136757016503e+00 3.347343077041615267e+00 3.348069391038183351e+00 3.348801977392025897e+00 3.349540733734146070e+00 3.350285556691934286e+00 3.351036341900035520e+00 3.351792984011412901e+00 3.352555376708592050e+00 3.353323412715098595e+00 3.354096983807087540e+00 3.354875980825159143e+00 3.355660293686371087e+00 3.356449811396444272e+00 3.357244422062157341e+00 3.358044012903944164e+00 3.358848470268678277e+00 3.359657679642657602e+00 3.360471525664788572e+00 3.361289892139959434e+00 3.362112662052620049e+00 3.362939717580554433e+00 3.363770940108851359e+00 3.364606210244077911e+00 3.365445407828647539e+00 3.366288411955391524e+00 3.367135100982323603e+00 3.367985352547609779e+00 3.368839043584737070e+00 3.369696050337875004e+00 3.370556248377442277e+00 3.371419512615871472e+00 3.372285717323567411e+00 3.373154736145069332e+00 3.374026442115405366e+00 3.374900707676649070e+00 3.375777404694664696e+00 3.376656404476054085e+00 3.377537577785297174e+00 3.378420794862081689e+00 3.379305925438830904e+00 3.380192838758419693e+00 3.381081403592080203e+00 3.381971488257499381e+00 3.382862960637101679e+00 3.383755688196516509e+00 3.384649538003237090e+00 3.385544376745451167e+00 3.386440070751063569e+00 3.387336486006890635e+00 3.388233488178036268e+00 3.389130942627439858e+00 3.390028714435599611e+00 3.390926668420467749e+00 3.391824669157507799e+00 3.392722580999928184e+00 3.393620268099068582e+00 3.394517594424954599e+00 3.395414423787007863e+00 3.396310619854909341e+00 3.397206046179619854e+00 3.398100566214541818e+00 3.398994043336836857e+00 3.399886340868877088e+00 3.400777322099840294e+00 3.401666850307440537e+00 3.402554788779790673e+00 3.266989456639715073e+00 3.266754228411830052e+00 3.266519516123110201e+00 3.266285354897648041e+00 3.266051779761933727e+00 3.265818825639730250e+00 3.265586527346969525e+00 3.265354919586674232e+00 3.234954846439444864e+00 3.235255375327662719e+00 3.235555229947628675e+00 3.235854364739296773e+00 3.236152734226858563e+00 3.236450293025837865e+00 3.236746995850186881e+00 3.237042797519383619e+00 3.237337652965526669e+00 3.237631517240426859e+00 3.237924345522695813e+00 3.238216093124827832e+00 3.238506715500278688e+00 3.238796168250531515e+00 3.239084407132158283e+00 3.239371388063868817e+00 3.239657067133548729e+00 3.239941400605282684e+00 3.240224344926367905e+00
3.312790850988109881e+00 3.313302853819498850e+00 3.313823098825431135e+00 3.314351515312675911e+00 3.314888031405737401e+00 3.315432574053267967e+00 3.315985069034618871e+00 3.316545440966540692e+00 3.317113613310036513e+00 3.317689508377363872e+00 3.318273047339188597e+00 3.318864150231894072e+00 3.319462735965045042e+00 3.320068722329005961e+00 3.320682026002722775e+00 3.321302562561657012e+00 3.321930246485885085e+00 3.322564991168359683e+00 3.323206708923330588e+00 3.323855310994935586e+00 3.324510707565951684e+00 3.325172807766719085e+00 3.325841519684228142e+00 3.326516750371379505e+00 3.327198405856415686e+00 3.327886391152520495e+00 3.328580610267596551e+00 3.329280966214212878e+00 3.329987361019732806e+00 3.330699695736611954e+00 3.331417870452879182e+00 3.332141784302795617e+00 3.332871335477688213e+00 3.333606421236969819e+00 3.334346937919336895e+00 3.335092780954150626e+00 3.335843844872999675e+00 3.336600023321450781e+00 3.337361209070976997e+00 3.338127294031075554e+00 3.338898169261573567e+00 3.339673724985113612e+00 3.340453850599831132e+00 3.341238434692217041e+00 3.342027365050170395e+00 3.342820528676235359e+00 3.343617811801028239e+00 3.344419099896855929e+00 3.345224277691517312e+00 3.346033229182300950e+00 3.346845837650163524e+00 3.347661985674104557e+00 3.348481555145724986e+00 3.349304427283977592e+00 3.350130482650104824e+00 3.350959601162763146e+00 3.351791662113340120e+00 3.352626544181451340e+00 3.353464125450634992e+00 3.354304283424220046e+00 3.355146895041391630e+00 3.355991836693436259e+00 3.356838984240168244e+00 3.357688213026546187e+00 3.358539397899468870e+00 3.359392413224748797e+00 3.360247132904272682e+00 3.361103430393334257e+00 3.361961178718151366e+00 3.362820250493552710e+00 3.363680517940843107e+00 3.364541852905842845e+00 3.365404126877094448e+00 3.366267211004243087e+00 3.367130976116583074e+00 3.367995292741770008e+00 3.368860031124698562e+00 3.369725061246539699e+00 3.370590252843939982e+00 3.371455475428376758e+00 3.372320598305666994e+00 3.373185490595631109e+00 3.374050021251905562e+00 3.374914059081900231e+00 3.375777472766905429e+00 3.376640130882332613e+00 3.377501901918101623e+00 3.378362654299158052e+00 3.379222256406123392e+00 3.380080576596075304e+00 3.380937483223453999e+00 3.381792844661086761e+00 3.382646529321337248e+00 3.247343667340435225e+00 3.247117494775861868e+00 3.246891852232911102e+00 3.246666773471034606e+00 3.246442292151265896e+00 3.246218441831298041e+00 3.245995255960580916e+00 3.215498106861939487e+00 3.215787657558205392e+00 3.216076556971055656e+00 3.216364761216463197e+00 3.216652226492527689e+00 3.216938909086302978e+00 3.217224765380627627e+00 3.217509751860950562e+00 3.217793825122155393e+00 3.218076941875384289e+00 3.218359058954855190e+00 3.218640133324674135e+00 3.218920122085638269e+00 3.219198982482036620e+00 3.219476671908435783e+00 3.219753147916458058e+00 3.220028368221546700e+00 3.220302290709719628e+00 3.220574873444308928e+00
3.295302015301734055e+00 3.295795647470658007e+00 3.296297221277696199e+00 3.296806668337508572e+00 3.297323919124027558e+00 3.297848902976795227e+00 3.298381548107441663e+00 3.298921781606312553e+00 3.299469529449233995e+00 3.300024716504433631e+00 3.300587266539598996e+00 3.301157102229094864e+00 3.301734145161323575e+00 3.302318315846241692e+00 3.302909533723026758e+00 3.303507717167898594e+00 3.304112783502096917e+00 3.304724649000013947e+00 3.305343228897485108e+00 3.305968437400241822e+00 3.306600187692516180e+00 3.307238391945814371e+00 3.307882961327850424e+00 3.308533806011639378e+00 3.309190835184761426e+00 3.309853957058784601e+00 3.310523078878857550e+00 3.311198106933470164e+00 3.311878946564380755e+00 3.312565502176712418e+00 3.313257677249221711e+00 3.313955374344735638e+00 3.314658495120761383e+00 3.315366940340271018e+00 3.316080609882654961e+00 3.316799402754853521e+00 3.317523217102662070e+00 3.318251950222210755e+00 3.318985498571620951e+00 3.319723757782838014e+00 3.320466622673642565e+00 3.321213987259835410e+00 3.321965744767605866e+00 3.322721787646072400e+00 3.323482007580007558e+00 3.324246295502737869e+00 3.325014541609224050e+00 3.325786635369320177e+00 3.326562465541211377e+00 3.327341920185034052e+00 3.328124886676669725e+00 3.328911251721724085e+00 3.329700901369680111e+00 3.330493721028232823e+00 3.331289595477800791e+00 3.332088408886217490e+00 3.332890044823599407e+00 3.333694386277390009e+00 3.334501315667582677e+00 3.335310714862119941e+00 3.336122465192461473e+00 3.336936447469339484e+00 3.337752541998671774e+00 3.338570628597663070e+00 3.339390586611064471e+00 3.340212294927613623e+00 3.341035631996637889e+00 3.341860475844830702e+00 3.342686704093190464e+00 3.343514193974125970e+00 3.344342822348727928e+00 3.345172465724201682e+00 3.346003000271457584e+00 3.346834301842867454e+00 3.347666245990168932e+00 3.348498707982534128e+00 3.349331562824783504e+00 3.350164685275757837e+00 3.350997949866833192e+00 3.351831230920588656e+00 3.352664402569610402e+00 3.353497338775445868e+00 3.354329913347692482e+00 3.355161999963224062e+00 3.355993472185551330e+00 3.356824203484313429e+00 3.357654067254899566e+00 3.358482936838191435e+00 3.359310685540433550e+00 3.360137186653219477e+00 3.360962313473591756e+00 3.361785939324260841e+00 3.362607937573927064e+00 3.363428181657709626e+00 3.228427914033057622e+00 3.228210574438668434e+00 3.227993776940361492e+00 3.227777553967944080e+00 3.227561937852225782e+00 3.227346960820288935e+00 3.227132654990789273e+00 3.197031408581645806e+00 3.197309633010824381e+00 3.197587186400427939e+00 3.197864026578930208e+00 3.198140111461386770e+00 3.198415399056000474e+00 3.198689847470687297e+00 3.198963414919640424e+00 3.199236059729890336e+00 3.199507740347856455e+00 3.199778415345899685e+00 3.200048043428862066e+00 3.200316583440600215e+00 3.200583994370509888e+00 3.200850235360039875e+00 3.201115265709193025e+00 3.201379044883016167e+00 3.201641532518072708e+00
3.278487998949858984e+00 3.278963686190339288e+00 3.279447021783495675e+00 3.279937939612140863e+00 3.280436372458993333e+00 3.280942252012942983e+00 3.281455508875444682e+00 3.281976072567061475e+00 3.282503871534142803e+00 3.283038833155644820e+00 3.283580883750099044e+00 3.284129948582719116e+00 3.284685951872658549e+00 3.285248816800411031e+00 3.285818465515360387e+00 3.286394819143479307e+00 3.286977797795179068e+00 3.287567320573305363e+00 3.288163305581294882e+00 3.288765669931474012e+00 3.289374329753522286e+00 3.289989200203084163e+00 3.290610195470537569e+00 3.291237228789921865e+00 3.291870212448021693e+00 3.292509057793611138e+00 3.293153675246857315e+00 3.293803974308880722e+00 3.294459863571485680e+00 3.295121250727041318e+00 3.295788042578538857e+00 3.296460145049799451e+00 3.297137463195855211e+00 3.297819901213493221e+00 3.298507362451962965e+00 3.299199749423854300e+00 3.299896963816136619e+00 3.300598906501371221e+00 3.301305477549087097e+00 3.302016576237329026e+00 3.302732101064369097e+00 3.303451949760592310e+00 3.304176019300550493e+00 3.304904205915182747e+00 3.305636405104206865e+00 3.306372511648686618e+00 3.307112419623756239e+00 3.307856022411530983e+00 3.308603212714172681e+00 3.309353882567136917e+00 3.310107923352581860e+00 3.310865225812951618e+00 3.311625680064728350e+00 3.312389175612352243e+00 3.313155601362308023e+00 3.313924845637387318e+00 3.314696796191112238e+00 3.315471340222325036e+00 3.316248364389953629e+00 3.317027754827930774e+00 3.317809397160289109e+00 3.318593176516415610e+00 3.319378977546467713e+00 3.320166684436958171e+00 3.320956180926493584e+00 3.321747350321681669e+00 3.322540075513190416e+00 3.323334238991968448e+00 3.324129722865624359e+00 3.324926408874955275e+00 3.325724178410634835e+00 3.326522912530048615e+00 3.327322491974284979e+00 3.328122797185269377e+00 3.328923708323050068e+00 3.329725105283224185e+00 3.330526867714513006e+00 3.331328875036471349e+00 3.332131006457341726e+00 3.332933140992040855e+00 3.333735157480282485e+00 3.334536934604833025e+00 3.335338350909892835e+00 3.336139284819610307e+00 3.336939614656714959e+00 3.337739218661273544e+00 3.338537975009568282e+00 3.339335761833083893e+00 3.340132457237616315e+00 3.340927939322483553e+00 3.341722086199847119e+00 3.342514776014138711e+00 3.343305886961580153e+00 3.344095297309807702e+00 3.210432959520602481e+00 3.210223717863789794e+00 3.210014997210528076e+00 3.209806828789339317e+00 3.209599243733948448e+00 3.209392273078729207e+00 3.209185947754166435e+00 3.208980298582349455e+00 3.179236465102220688e+00 3.179503633412702257e+00 3.179770113722049985e+00 3.180035865531955608e+00 3.180300848434632677e+00 3.180565022119128837e+00 3.180828346377633675e+00 3.181090781111784782e+00 3.181352286338962276e+00 3.181612822198585988e+00 3.181872348958397989e+00 3.182130827020742458e+00 3.182388216928831337e+00 3.182644479372999324e+00 3.182899575196953990e+00 3.183153465404003679e+00 3.183406111163276542e+00
3.262333497263112392e+00 3.262791644109038103e+00 3.263257152912755643e+00 3.263729959787484258e+00 3.264209999786134020e+00 3.264697206907481331e+00 3.265191514102481207e+00 3.265692853280711905e+00 3.266201155316959870e+00 3.266716350057939255e+00 3.267238366329150878e+00 3.267767131941885062e+00 3.268302573700357261e+00 3.268844617408993347e+00 3.269393187879854779e+00 3.269948208940203660e+00 3.270509603440219681e+00 3.271077293260856056e+00 3.271651199321846004e+00 3.272231241589857564e+00 3.272817339086789179e+00 3.273409409898225597e+00 3.274007371182034554e+00 3.274611139177119323e+00 3.275220629212321377e+00 3.275835755715475806e+00 3.276456432222617288e+00 3.277082571387347265e+00 3.277714084990348109e+00 3.278350883949054051e+00 3.278992878327483762e+00 3.279639977346221702e+00 3.280292089392562005e+00 3.280949122030809573e+00 3.281610982012735267e+00 3.282277575288195859e+00 3.282948807015909409e+00 3.283624581574390522e+00 3.284304802573046356e+00 3.284989372863434287e+00 3.285678194550676334e+00 3.286371169005037896e+00 3.287068196873668136e+00 3.287769178092495359e+00 3.288474011898292915e+00 3.289182596840898309e+00 3.289894830795598857e+00 3.290610610975676753e+00 3.291329833945113581e+00 3.292052395631459571e+00 3.292778191338861848e+00 3.293507115761252546e+00 3.294239062995697687e+00 3.294973926555907706e+00 3.295711599385905188e+00 3.296451973873851582e+00 3.297194941866034679e+00 3.297940394681013299e+00 3.298688223123916075e+00 3.299438317500899664e+00 3.300190567633764172e+00 3.300944862874717778e+00 3.301701092121300807e+00 3.302459143831460331e+00 3.303218906038773550e+00 3.303980266367831042e+00 3.304743112049755460e+00 3.305507329937883654e+00 3.306272806523582020e+00 3.307039427952215949e+00 3.307807080039262715e+00 3.308575648286558923e+00 3.309345017898699837e+00 3.310115073799568819e+00 3.310885700649008001e+00 3.311656782859622172e+00 3.312428204613721228e+00 3.313199849880384740e+00 3.313971602432664643e+00 3.314743345864910484e+00 3.315514963610220800e+00 3.316286338958016611e+00 3.317057355071733493e+00 3.317827895006636663e+00 3.318597841727743969e+00 3.319367078127866133e+00 3.320135487045756228e+00 3.320902951284364413e+00 3.321669353629197463e+00 3.322434576866780009e+00 3.323198503803214354e+00 3.323961017282832664e+00 3.324722000206944639e+00 3.325481335552670892e+00 3.326238906391862926e+00 3.192914364915661274e+00 3.192713526866149287e+00 3.192513219346199804e+00 3.192313472320772672e+00 3.192114315659713153e+00 3.191915779133379427e+00 3.191717892408300283e+00 3.161839955177068173e+00 3.162096990946545283e+00 3.162353363403642259e+00 3.162609033597381991e+00 3.162863962664694828e+00 3.163118111836482615e+00 3.163371442443678294e+00 3.163623915923299723e+00 3.163875493824501728e+00 3.164126137814620598e+00 3.164375809685207042e+00 3.164624471358056912e+00 3.164872084891226844e+00 3.165118612485043670e+00 3.165364016488097842e+00 3.165608259403227542e+00 3.165851303893484570e+00
3.246823977396291916e+00 3.247264968132557605e+00 3.247713040978547738e+00 3.248168134242077176e+00 3.248630185209622656e+00 3.249099130152408144e+00 3.249574904332620306e+00 3.250057442009754549e+00 3.250546676447094718e+00 3.251042539918326923e+00 3.251544963714285252e+00 3.252053878149833821e+00 3.252569212570886492e+00 3.253090895361562485e+00 3.253618853951476986e+00 3.254153014823176093e+00 3.254693303519705871e+00 3.255239644652325737e+00 3.255791961908359067e+00 3.256350178059189471e+00 3.256914214968398280e+00 3.257483993600044592e+00 3.258059434027089196e+00 3.258640455439966388e+00 3.259226976155298772e+00 3.259818913624756842e+00 3.260416184444071330e+00 3.261018704362186327e+00 3.261626388290562950e+00 3.262239150312634006e+00 3.262856903693406085e+00 3.263479560889209097e+00 3.264107033557600790e+00 3.264739232567417382e+00 3.265376068008978727e+00 3.266017449204440926e+00 3.266663284718306581e+00 3.267313482368081612e+00 3.267967949235085712e+00 3.268626591675418691e+00 3.269289315331075141e+00 3.269956025141214973e+00 3.270626625353585837e+00 3.271301019536097865e+00 3.271979110588554729e+00 3.272660800754533028e+00 3.273345991633419327e+00 3.274034584192595077e+00 3.274726478779780958e+00 3.275421575135526453e+00 3.276119772405857500e+00 3.276820969155070706e+00 3.277525063378685655e+00 3.278231952516541536e+00 3.278941533466048774e+00 3.279653702595589859e+00 3.280368355758066290e+00 3.281085388304602724e+00 3.281804695098386127e+00 3.282526170528667464e+00 3.283249708524895727e+00 3.283975202571007834e+00 3.284702545719857536e+00 3.285431630607789977e+00 3.286162349469358812e+00 3.286894594152181881e+00 3.287628256131943427e+00 3.288363226527527328e+00 3.289099396116292429e+00 3.289836655349483330e+00 3.290574894367776171e+00 3.291314003016954981e+00 3.292053870863721698e+00 3.292794387211636309e+00 3.293535441117183105e+00 3.294276921405963066e+00 3.295018716689012361e+00 3.295760715379242534e+00 3.296502805707998363e+00 3.297244875741736525e+00 3.297986813398820605e+00 3.298728506466428012e+00 3.299469842617565707e+00 3.300210709428202271e+00 3.300950994394499016e+00 3.301690584950148555e+00 3.302429368483814187e+00 3.303167232356666094e+00 3.303904063920017453e+00 3.304639750533047149e+00 3.305374179580619742e+00 3.306107238491186262e+00 3.306838814754772926e+00 3.307568795941048911e+00 3.308297069717472727e+00 3.309023523867512306e+00 3.176073301818901573e+00 3.175880671217262918e+00 3.175688578827563724e+00 3.175497053381896251e+00 3.175306123517136481e+00 3.175115817770758131e+00 3.174926164576668430e+00 3.145351000193858937e+00 3.145597504233646813e+00 3.145843331713555013e+00 3.146088445277896550e+00 3.146332807662108433e+00 3.146576381698569236e+00 3.146819130322413116e+00 3.147061016577338055e+00 3.147302003621403443e+00 3.147542054732829442e+00 3.147781133315776358e+00 3.148019202906121805e+00 3.148256227177225419e+00 3.148492169945680264e+00 3.148726995177053567e+00 3.148960666991611479e+00
3.231945644108756177e+00 3.232369843660666486e+00 3.232800851692924748e+00 3.233238608674003256e+00 3.233683054089237618e+00 3.234134126446810864e+00 3.234591763283868993e+00 3.235055901172761317e+00 3.235526475727407814e+00 3.236003421609799258e+00 3.236486672536622144e+00 3.236976161286020393e+00 3.237471819704484055e+00 3.237973578713871703e+00 3.238481368318563369e+00 3.238995117612753383e+00 3.239514754787869766e+00 3.240040207140136186e+00 3.240571401078260916e+00 3.241108262131273232e+00 3.241650714956487267e+00 3.242198683347608412e+00 3.242752090242976948e+00 3.243310857733952890e+00 3.243874907073435843e+00 3.244444158684528290e+00 3.245018532169341441e+00 3.245597946317936522e+00 3.246182319117413506e+00 3.246771567761137955e+00 3.247365608658113079e+00 3.247964357442494343e+00 3.248567728983244862e+00 3.249175637393939997e+00 3.249787996042708738e+00 3.250404717562327406e+00 3.251025713860450583e+00 3.251650896129992585e+00 3.252280174859649264e+00 3.252913459844568589e+00 3.253550660197164657e+00 3.254191684358078707e+00 3.254836440107279572e+00 3.255484834575320452e+00 3.256136774254728472e+00 3.256792165011548335e+00 3.257450912097026308e+00 3.258112920159443870e+00 3.258778093256086361e+00 3.259446334865367945e+00 3.260117547899091139e+00 3.260791634714854670e+00 3.261468497128602539e+00 3.262148036427315656e+00 3.262830153381846898e+00 3.263514748259896958e+00 3.264201720839128740e+00 3.264890970420427418e+00 3.265582395841292396e+00 3.266275895489375358e+00 3.266971367316148900e+00 3.267668708850719028e+00 3.268367817213766902e+00 3.269068589131630898e+00 3.269770920950515691e+00 3.270474708650842111e+00 3.271179847861721779e+00 3.271886233875563210e+00 3.272593761662807132e+00 3.273302325886790598e+00 3.274011820918733662e+00 3.274722140852851737e+00 3.275433179521591409e+00 3.276144830510984374e+00 3.276856987176123948e+00 3.277569542656757040e+00 3.278282389892992477e+00 3.278995421641120345e+00 3.279708530489547247e+00 3.280421608874838135e+00 3.281134549097864728e+00 3.281847243340062725e+00 3.282559583679788506e+00 3.283271462108778849e+00 3.283982770548705243e+00 3.284693400867829016e+00 3.285403244897746156e+00 3.286112194450223623e+00 3.286820141334122258e+00 3.287526977372410286e+00 3.288232594419250532e+00 3.288936884377174241e+00 3.289639739214329950e+00 3.290341050981803406e+00 3.291040711831012544e+00 3.291738614031162413e+00 3.292434649986776041e+00 3.159893933417028400e+00 3.159709321458811448e+00 3.159525253609020368e+00 3.159341757396355366e+00 3.159158860254414503e+00 3.158976589517684896e+00 3.158794972417553915e+00 3.129487077671122996e+00 3.129723289372530637e+00 3.129958813827932840e+00 3.130193615241849692e+00 3.130427657912677297e+00 3.130660906238260655e+00 3.130893324721470083e+00 3.131124877975760779e+00 3.131355530730736358e+00 3.131585247837690211e+00 3.131813994275147284e+00 3.132041735154392104e+00 3.132268435724983036e+00 3.132494061380257211e+00 3.132718577662819026e+00
3.217685407771123440e+00 3.218093162536134422e+00 3.218507458057279003e+00 3.218928236931567266e+00 3.219355440810339530e+00 3.219789010405146534e+00 3.220228885493754856e+00 3.220675004926276230e+00 3.221127306631417220e+00 3.221585727622858553e+00 3.222050204005753926e+00 3.222520670983362479e+00 3.222997062863802054e+00 3.223479313066929475e+00 3.223967354131357155e+00 3.224461117721586945e+00 3.224960534635283427e+00 3.225465534810669332e+00 3.225976047334057739e+00 3.226492000447512165e+00 3.227013321556637226e+00 3.227539937238506074e+00 3.228071773249715282e+00 3.228608754534576963e+00 3.229150805233443666e+00 3.229697848691166051e+00 3.230249807465685130e+00 3.230806603336763949e+00 3.231368157314849832e+00 3.231934389650072070e+00 3.232505219841381283e+00 3.233080566645820664e+00 3.233660348087934455e+00 3.234244481469314980e+00 3.234832883378285118e+00 3.235425469699721113e+00 3.236022155625010388e+00 3.236622855662146137e+00 3.237227483645964021e+00 3.237835952748512547e+00 3.238448175489564651e+00 3.239064063747262967e+00 3.239683528768907639e+00 3.240306481181878695e+00 3.240932831004697867e+00 3.241562487658226743e+00 3.242195359977001257e+00 3.242831356220705619e+00 3.243470384085781255e+00 3.244112350717173410e+00 3.244757162720208754e+00 3.245404726172617771e+00 3.246054946636681482e+00 3.246707729171522505e+00 3.247362978345521345e+00 3.248020598248871682e+00 3.248680492506266670e+00 3.249342564289714463e+00 3.250006716331490519e+00 3.250672850937213365e+00 3.251340869999053584e+00 3.252010675009072926e+00 3.252682167072683317e+00 3.253355246922240873e+00 3.254029814930761599e+00 3.254705771125756542e+00 3.255383015203198838e+00 3.256061446541602677e+00 3.256740964216230605e+00 3.257421467013414507e+00 3.258102853444993841e+00 3.258785021762874212e+00 3.259467869973694309e+00 3.260151295853609188e+00 3.260835196963181914e+00 3.261519470662388009e+00 3.262204014125723361e+00 3.262888724357417392e+00 3.263573498206753687e+00 3.264258232383487890e+00 3.264942823473367284e+00 3.265627167953746302e+00 3.266311162209297070e+00 3.266994702547814988e+00 3.267677685216111794e+00 3.268360006415997443e+00 3.269041562320349037e+00 3.269722249089261901e+00 3.270401962886279712e+00 3.271080599894706786e+00 3.271758056333991416e+00 3.272434228476183371e+00 3.273109012662460238e+00 3.273782305319723029e+00 3.274454002977253531e+00 3.275124002283432922e+00 3.275792200022518141e+00 3.276458493131473748e+00 3.144361224604693472e+00 3.144184449475008858e+00 3.144008222618184245e+00 3.143832570387851355e+00 3.143657519042859061e+00 3.143483094743440454e+00 3.143309323547395007e+00 3.114234211825650966e+00 3.114460362175258457e+00 3.114685817074549945e+00 3.114910542254283321e+00 3.115134503541390654e+00 3.115357666864318364e+00 3.115579998258362071e+00 3.115801463870993437e+00 3.116022029967175033e+00 3.116241662934671197e+00 3.116460329289344244e+00 3.116677995680438684e+00 3.116894628895854780e+00 3.117110195867408784e+00
3.204030854452465160e+00 3.204422493078008305e+00 3.204820410340757153e+00 3.205224550935902084e+00 3.205634858649735630e+00 3.206051276365422975e+00 3.206473746068890129e+00 3.206902208854833791e+00 3.207336604932850666e+00 3.207776873633685799e+00 3.208222953415604373e+00 3.208674781870882065e+00 3.209132295732421980e+00 3.209595430880489264e+00 3.210064122349573168e+00 3.210538304335371240e+00 3.211017910201898307e+00 3.211502872488720239e+00 3.211993122918313404e+00 3.212488592403549781e+00 3.212989211055308214e+00 3.213494908190213550e+00 3.214005612338501461e+00 3.214521251252012490e+00 3.215041751912313117e+00 3.215567040538946042e+00 3.216097042597806599e+00 3.216631682809654169e+00 3.217170885158746163e+00 3.217714572901605674e+00 3.218262668575919250e+00 3.218815094009561673e+00 3.219371770329754856e+00 3.219932617972354194e+00 3.220497556691268581e+00 3.221066505568008331e+00 3.221639383021363656e+00 3.222216106817219483e+00 3.222796594078493282e+00 3.223380761295210117e+00 3.223968524334705155e+00 3.224559798451957615e+00 3.225154498300056627e+00 3.225752537940795861e+00 3.226353830855398730e+00 3.226958289955375037e+00 3.227565827593505521e+00 3.228176355574956524e+00 3.228789785168524329e+00 3.229406027118007838e+00 3.230024991653707822e+00 3.230646588504057171e+00 3.231270726907375934e+00 3.231897315623752931e+00 3.232526262947054363e+00 3.233157476717057222e+00 3.233790864331707926e+00 3.234426332759503975e+00 3.235063788551999053e+00 3.235703137856430267e+00 3.236344286428465278e+00 3.236987139645074674e+00 3.237631602517515361e+00 3.238277579704439191e+00 3.238924975525115713e+00 3.239573693972772173e+00 3.240223638728046307e+00 3.240874713172553712e+00 3.241526820402567122e+00 3.242179863242807158e+00 3.242833744260340545e+00 3.243488365778588012e+00 3.244143629891436564e+00 3.244799438477457887e+00 3.245455693214228443e+00 3.246112295592752606e+00 3.246769146931981709e+00 3.247426148393436129e+00 3.248083200995915298e+00 3.248740205630311628e+00 3.249397063074504377e+00 3.250053674008355209e+00 3.250709939028781026e+00 3.251365758664919170e+00 3.252021033393372118e+00 3.252675663653533888e+00 3.253329549862995940e+00 3.253982592433028120e+00 3.254634691784132006e+00 3.255285748361669285e+00 3.255935662651554985e+00 3.256584335196017310e+00 3.257231666609422316e+00 3.257877557594156315e+00 3.258521908956569568e+00 3.259164621622971936e+00 3.259805596655680038e+00 3.260444735269116823e+00 3.129630544438374518e+00 3.129460905508340662e+00 3.129291792037343978e+00 3.129123229321744581e+00 3.128955242567331485e+00 3.128787856885633101e+00 3.128621097290253061e+00 3.128454988693219807e+00 3.099579125236252786e+00 3.099795437225556949e+00 3.100011047967519584e+00 3.100225924686227597e+00 3.100440034703804582e+00 3.100653345445517406e+00 3.100865824444883234e+00 3.101077439348757014e+00 3.101288157922417188e+00 3.101497948054635412e+00 3.101706777762740952e+00 3.101914615197665093e+00 3.102121428648977552e+00
3.190970217954018473e+00 3.191346052064859773e+00 3.191727908012148340e+00 3.192115732560616426e+00 3.192509471602208659e+00 3.192909070161736196e+00 3.193314472402646320e+00 3.193725621632903966e+00 3.194142460310993581e+00 3.194564930052034235e+00 3.194992971634011525e+00 3.195426525004130713e+00 3.195865529285279560e+00 3.196309922782617718e+00 3.196759642990281147e+00 3.197214626598202880e+00 3.197674809499060355e+00 3.198140126795335103e+00 3.198610512806498551e+00 3.199085901076315075e+00 3.199566224380267609e+00 3.200051414733105393e+00 3.200541403396511608e+00 3.201036120886894931e+00 3.201535496983303197e+00 3.202039460735458754e+00 3.202547940471918597e+00 3.203060863808356640e+00 3.203578157655968095e+00 3.204099748230000877e+00 3.204625561058408234e+00 3.205155520990626616e+00 3.205689552206475668e+00 3.206227578225185226e+00 3.206769521914544452e+00 3.207315305500177960e+00 3.207864850574940085e+00 3.208418078108441485e+00 3.208974908456694752e+00 3.209535261371884829e+00 3.210099056012265084e+00 3.210666210952175081e+00 3.211236644192184464e+00 3.211810273169356744e+00 3.212387014767640991e+00 3.212966785328382091e+00 3.213549500660956237e+00 3.214135076053525886e+00 3.214723426283922159e+00 3.215314465630638718e+00 3.215908107883959310e+00 3.216504266357192332e+00 3.217102853898034631e+00 3.217703782900052545e+00 3.218306965314276180e+00 3.218912312660918484e+00 3.219519736041208002e+00 3.220129146149335320e+00 3.220740453284520743e+00 3.221353567363192116e+00 3.221968397931275874e+00 3.222584854176604452e+00 3.223202844941432943e+00 3.223822278735064106e+00 3.224443063746586180e+00 3.225065107857718161e+00 3.225688318655761666e+00 3.226312603446655825e+00 3.226937869268143633e+00 3.227564022903031571e+00 3.228190970892561129e+00 3.228818619549870927e+00 3.229446874973565862e+00 3.230075643061376400e+00 3.230704829523917354e+00 3.231334339898539021e+00 3.231964079563271586e+00 3.232593953750857008e+00 3.233223867562871057e+00 3.233853725983933725e+00 3.234483433896000015e+00 3.235112896092736889e+00 3.235742017293977035e+00 3.236370702160255686e+00 3.236998855307420708e+00 3.237626381321315971e+00 3.238253184772538873e+00 3.238879170231265370e+00 3.239504242282143398e+00 3.240128305539250242e+00 3.240751264661113407e+00 3.241373024365787892e+00 3.241993489445995191e+00 3.242612564784312479e+00 3.243230155368416856e+00 3.243846166306376233e+00 3.244460502841989058e+00 3.245073070370165347e+00 3.245683774452349457e+00 3.115341585494556309e+00 3.115179437403804208e+00 3.115017816741618262e+00 3.114856747682142935e+00 3.114696254309507584e+00 3.114536360614300836e+00 3.114377090490071165e+00 3.114218467729838569e+00 3.085509208340092346e+00 3.085715897352559356e+00 3.085921881658171273e+00 3.086127129942443315e+00 3.086331610990366681e+00 3.086535293691291315e+00 3.086738147043797120e+00 3.086940140160558066e+00 3.087141242273196085e+00 3.087341422737119867e+00 3.087540651036356554e+00 3.087738896788366993e+00
3.178492353666254377e+00 3.178852678544538790e+00 3.179218773501506501e+00 3.179590587344460317e+00 3.179968068043399931e+00 3.180351162736555271e+00 3.180739817736027319e+00 3.181133978533540851e+00 3.181533589806309514e+00 3.181938595423012384e+00 3.182348938449883313e+00 3.182764561156911309e+00 3.183185405024159476e+00 3.183611410748188764e+00 3.184042518248605624e+00 3.184478666674714908e+00 3.184919794412296667e+00 3.185365839090487761e+00 3.185816737588789138e+00 3.186272426044181483e+00 3.186732839858358091e+00 3.187197913705079433e+00 3.187667581537636519e+00 3.188141776596434163e+00 3.188620431416695489e+00 3.189103477836275680e+00 3.189590847003599627e+00 3.190082469385714159e+00 3.190578274776458390e+00 3.191078192304752204e+00 3.191582150443001975e+00 3.192090077015625305e+00 3.192601899207692107e+00 3.193117543573686490e+00 3.193636936046383656e+00 3.194160001945846261e+00 3.194686665988538010e+00 3.195216852296557608e+00 3.195750484406986391e+00 3.196287485281355867e+00 3.196827777315232488e+00 3.197371282347920562e+00 3.197917921672279284e+00 3.198467616044657458e+00 3.199020285694948562e+00 3.199575850336755511e+00 3.200134229177672651e+00 3.200695340929689436e+00 3.201259103819697582e+00 3.201825435600122560e+00 3.202394253559663007e+00 3.202965474534145152e+00 3.203539014917489602e+00 3.204114790672790924e+00 3.204692717343507358e+00 3.205272710064758446e+00 3.205854683574739017e+00 3.206438552226237082e+00 3.207024229998258757e+00 3.207611630507765099e+00 3.208200667021511521e+00 3.208791252467991573e+00 3.209383299449490856e+00 3.209976720254236415e+00 3.210571426868653155e+00 3.211167330989718849e+00 3.211764344037421282e+00 3.212362377167309990e+00 3.212961341283148808e+00 3.213561147049661226e+00 3.214161704905373451e+00 3.214762925075544509e+00 3.215364717585196708e+00 3.215966992272224712e+00 3.216569658800605858e+00 3.217172626673683311e+00 3.217775805247546472e+00 3.218379103744485548e+00 3.218982431266534050e+00 3.219585696809085906e+00 3.220188809274592501e+00 3.220791677486338767e+00 3.221394210202284558e+00 3.221996316128986848e+00 3.222597903935587649e+00 3.223198882267867660e+00 3.223799159762368305e+00 3.224398645060578605e+00 3.224997246823176678e+00 3.225594873744335622e+00 3.226191434566084482e+00 3.226786838092720267e+00 3.227380993205275939e+00 3.227973808876032802e+00 3.228565194183082188e+00 3.229155058324929328e+00 3.229743310635141640e+00 3.230329860597028091e+00 3.230914617858363425e+00 3.231497492246139025e+00 3.232078393781346204e+00 3.101503980867467369e+00 3.101349690177195306e+00 3.101195950345098318e+00 3.101042784358837956e+00 3.100890215113452086e+00 3.100738265408006455e+00 3.100586957942273347e+00 3.072012490894446834e+00 3.072209765071522991e+00 3.072406333354459118e+00 3.072602165859265266e+00 3.072797232802454648e+00 3.072991504505705240e+00 3.073184951400506293e+00 3.073377544032798170e+00 3.073569253067600648e+00 3.073760049293625674e+00 3.073949903627881231e+00
3.166586714136014447e+00 3.166931809356920979e+00 3.167282427677726719e+00 3.167638519922958196e+00 3.168000036114734907e+00 3.168366925478168561e+00 3.168739136446875548e+00 3.169116616668590236e+00 3.169499313010892383e+00 3.169887171567034034e+00 3.170280137661883657e+00 3.170678155857973302e+00 3.171081169961653679e+00 3.171489123029362478e+00 3.171901957374000158e+00 3.172319614571413648e+00 3.172742035466993737e+00 3.173169160182379045e+00 3.173600928122272347e+00 3.174037277981368810e+00 3.174478147751392143e+00 3.174923474728243988e+00 3.175373195519263891e+00 3.175827246050601183e+00 3.176285561574699212e+00 3.176748076677887944e+00 3.177214725288094677e+00 3.177685440682658680e+00 3.178160155496265737e+00 3.178638801728988383e+00 3.179121310754443819e+00 3.179607613328058857e+00 3.180097639595449888e+00 3.180591319100915193e+00 3.181088580796037402e+00 3.181589353048398294e+00 3.182093563650406409e+00 3.182601139828237002e+00 3.183112008250878588e+00 3.183626095039298498e+00 3.184143325775710132e+00 3.184663625512961449e+00 3.185186918784022048e+00 3.185713129611593253e+00 3.186242181517815464e+00 3.186773997534093184e+00 3.187308500211028406e+00 3.187845611628455700e+00 3.188385253405594977e+00 3.188927346711302402e+00 3.189471812274436324e+00 3.190018570394323127e+00 3.190567540951331438e+00 3.191118643417552914e+00 3.191671796867584288e+00 3.192226919989412881e+00 3.192783931095409589e+00 3.193342748133416453e+00 3.193903288697941267e+00 3.194465470041451205e+00 3.195029209085759270e+00 3.195594422433522652e+00 3.196161026379821912e+00 3.196728936923849407e+00 3.197298069780684759e+00 3.197868340393167585e+00 3.198439663943863032e+00 3.199011955367117466e+00 3.199585129361202984e+00 3.200159100400556067e+00 3.200733782748095724e+00 3.201309090467636231e+00 3.201884937436376699e+00 3.202461237357478563e+00 3.203037903772723460e+00 3.203614850075251042e+00 3.204191989522372275e+00 3.204769235248465353e+00 3.205346500277940436e+00 3.205923697538281658e+00 3.206500739873157091e+00 3.207077540055601084e+00 3.207654010801263667e+00 3.208230064781723012e+00 3.208805614637863624e+00 3.209380572993316250e+00 3.209954852467958641e+00 3.210528365691466046e+00 3.211101025316930535e+00 3.211672744034517635e+00 3.212243434585187352e+00 3.212813009774453388e+00 3.213381382486196536e+00 3.213948465696514045e+00 3.214514172487616950e+00 3.215078416061762034e+00 3.215641109755221549e+00 3.216202167052287564e+00 3.216761501599304296e+00 3.217319027218732863e+00 3.217874657923240012e+00 3.218428307929808163e+00 3.088422366013900966e+00 3.088275248181489463e+00 3.088128678911116864e+00 3.087982680118231738e+00 3.087837273626758083e+00 3.087692481165907221e+00 3.087548324367005659e+00 3.059077615276952766e+00 3.059265675864441203e+00 3.059453031581714999e+00 3.059639653945260829e+00 3.059825514572697358e+00 3.060010585187219689e+00 3.060194837622025599e+00 3.060378243824736444e+00 3.060560775861799865e+00 3.060742405922886711e+00
3.155243326239536295e+00 3.155573456265221122e+00 3.155908866937416235e+00 3.156249511074116665e+00 3.156595340725239840e+00 3.156946307177898259e+00 3.157302360961765419e+00 3.157663451854553216e+00 3.158029528887588810e+00 3.158400540351494978e+00 3.158776433801975703e+00 3.159157156065704797e+00 3.159542653246319333e+00 3.159932870730519205e+00 3.160327753194269729e+00 3.160727244609108144e+00 3.161131288248559823e+00 3.161539826694654387e+00 3.161952801844552852e+00 3.162370154917276910e+00 3.162791826460544797e+00 3.163217756357715071e+00 3.163647883834835195e+00 3.164082147467794037e+00 3.164520485189587173e+00 3.164962834297682992e+00 3.165409131461494940e+00 3.165859312729965236e+00 3.166313313539252938e+00 3.166771068720522830e+00 3.167232512507852871e+00 3.167697578546234016e+00 3.168166199899689062e+00 3.168638309059487845e+00 3.169113837952473922e+00 3.169592717949497374e+00 3.170074879873949758e+00 3.170560254010408752e+00 3.171048770113384041e+00 3.171540357416171574e+00 3.172034944639811282e+00 3.172532460002150057e+00 3.173032831227005524e+00 3.173535985553440408e+00 3.174041849745131927e+00 3.174550350099851315e+00 3.175061412459041943e+00 3.175574962217497799e+00 3.176090924333149879e+00 3.176609223336946730e+00 3.177129783342838909e+00 3.177652528057861581e+00 3.178177380792317930e+00 3.178704264470058050e+00 3.179233101638859083e+00 3.179763814480898176e+00 3.180296324823324916e+00 3.180830554148926126e+00 3.181366423606889260e+00 3.181903854023652389e+00 3.182442765913854110e+00 3.182983079491368716e+00 3.183524714680436407e+00 3.184067591126880536e+00 3.184611628209412793e+00 3.185156745051027638e+00 3.185702860530480685e+00 3.186249893293853663e+00 3.186797761766199777e+00 3.187346384163275648e+00 3.187895678503349650e+00 3.188445562619094620e+00 3.188995954169553393e+00 3.189546770652183838e+00 3.190097929414979383e+00 3.190649347668663260e+00 3.191200942498951143e+00 3.191752630878888386e+00 3.192304329681255215e+00 3.192855955691034975e+00 3.193407425617954321e+00 3.193958656109080252e+00 3.194509563761483761e+00 3.195060065134959437e+00 3.195610076764805463e+00 3.196159515174657795e+00 3.196708296889381185e+00 3.197256338448005497e+00 3.197803556416722426e+00 3.198349867401916846e+00 3.198895188063255457e+00 3.199439435126811393e+00 3.199982525398232802e+00 3.200524375775948727e+00 3.201064903264414507e+00 3.201604024987387387e+00 3.202141658201235419e+00 3.202677720308277909e+00 3.203212128870149389e+00 3.203744801621189797e+00 3.204275656481856860e+00 3.204804611572157125e+00 3.205331585225091651e+00 3.075923064684927155e+00 3.075782968044723731e+00 3.075643416156105481e+00 3.075504429885664859e+00 3.075366030009754503e+00 3.075228237211450999e+00 3.075091072077537291e+00 3.046693811507573457e+00 3.046872853183712593e+00 3.047051193167790384e+00 3.047228804347625442e+00 3.047405659712415282e+00 3.047581732356959172e+00 3.047756995485872089e+00 3.047931422417787584e+00 3.048104986589546872e+00
3.144452769865526687e+00 3.144768184599814109e+00 3.145088641808787333e+00 3.145414096281700989e+00 3.145744502073535731e+00 3.146079812510128804e+00 3.146419980193400523e+00 3.146764957006679353e+00 3.147114694120131340e+00 3.147469141996279696e+00 3.147828250395634964e+00 3.148191968382414885e+00 3.148560244330372626e+00 3.148933025928720486e+00 3.149310260188153965e+00 3.149691893446978863e+00 3.150077871377338301e+00 3.150468138991537437e+00 3.150862640648475210e+00 3.151261320060171123e+00 3.151664120298393712e+00 3.152070983801396942e+00 3.152481852380748073e+00 3.152896667228263894e+00 3.153315368923045092e+00 3.153737897438610993e+00 3.154164192150141321e+00 3.154594191841809447e+00 3.155027834714225765e+00 3.155465058391976996e+00 3.155905799931269851e+00 3.156349995827670618e+00 3.156797582023952664e+00 3.157248493918035415e+00 3.157702666371033917e+00 3.158160033715399884e+00 3.158620529763166207e+00 3.159084087814293618e+00 3.159550640665111487e+00 3.160020120616862549e+00 3.160492459484342653e+00 3.160967588604642220e+00 3.161445438845984057e+00 3.161925940616656661e+00 3.162409023874050540e+00 3.162894618133785141e+00 3.163382652478935242e+00 3.163873055569353276e+00 3.164365755651086243e+00 3.164860680565884987e+00 3.165357757760810298e+00 3.165856914297934033e+00 3.166358076864126403e+00 3.166861171780941397e+00 3.167366125014591471e+00 3.167872862186010163e+00 3.168381308581009748e+00 3.168891389160521488e+00 3.169403028570928260e+00 3.169916151154481998e+00 3.170430680959808623e+00 3.170946541752497350e+00 3.171463657025770821e+00 3.171981950011247164e+00 3.172501343689772213e+00 3.173021760802342772e+00 3.173543123861102710e+00 3.174065355160420765e+00 3.174588376788045618e+00 3.175112110636333806e+00 3.175636478413557562e+00 3.176161401655280159e+00 3.176686801735807197e+00 3.177212599879707167e+00 3.177738717173399952e+00 3.178265074576814619e+00 3.178791592935112931e+00 3.179318192990475023e+00 3.179844795393950818e+00 3.180371320717373163e+00 3.180897689465324252e+00 3.181423822087169562e+00 3.181949638989138407e+00 3.182475060546465784e+00 3.183000007115581287e+00 3.183524399046354425e+00 3.184048156694380349e+00 3.184571200433321092e+00 3.185093450667286774e+00 3.185614827843257224e+00 3.186135252463551559e+00 3.186654645098327965e+00 3.187172926398127437e+00 3.187690017106444174e+00 3.188205838072335929e+00 3.188720310263058355e+00 3.189233354776729090e+00 3.189744892855017611e+00 3.190254845895855951e+00 3.190763135466174294e+00 3.191269683314648109e+00 3.191774411384470156e+00 3.192277241826124712e+00 3.192778097010183558e+00 3.063995164466002841e+00 3.063861942540944572e+00 3.063729260077163286e+00 3.063597136914898211e+00 3.063465592805616478e+00 3.063334647409123424e+00 3.063204320290696447e+00 3.063074630918230401e+00 3.035021085071327729e+00 3.035190599844955983e+00 3.035359392436601578e+00 3.035527437178354937e+00 3.035694708507563622e+00 3.035861180970835349e+00 3.036026829228026802e+00
3.134206158020101274e+00 3.134507093326193150e+00 3.134812836981989648e+00 3.135123345727310440e+00 3.135438575601008804e+00 3.135758481945949416e+00 3.136083019414092288e+00 3.136412141971660184e+00 3.136745802904412184e+00 3.137083954823003396e+00 3.137426549668445919e+00 3.137773538717663069e+00 3.138124872589141745e+00 3.138480501248674504e+00 3.138840374015205992e+00 3.139204439566769089e+00 3.139572645946519636e+00 3.139944940568867082e+00 3.140321270225700623e+00 3.140701581092714356e+00 3.141085818735822155e+00 3.141473928117677783e+00 3.141865853604283831e+00 3.142261538971699686e+00 3.142660927412848526e+00 3.143063961544413143e+00 3.143470583413837005e+00 3.143880734506412811e+00 3.144294355752473624e+00 3.144711387534674163e+00 3.145131769695374224e+00 3.145555441544109598e+00 3.145982341865165122e+00 3.146412408925237880e+00 3.146845580481201221e+00 3.147281793787955362e+00 3.147720985606377475e+00 3.148163092211367697e+00 3.148608049399981734e+00 3.149055792499663387e+00 3.149506256376566782e+00 3.149959375443974086e+00 3.150415083670799810e+00 3.150873314590192820e+00 3.151334001308227606e+00 3.151797076512683038e+00 3.152262472481918820e+00 3.152730121093832327e+00 3.153199953834913138e+00 3.153671901809379285e+00 3.154145895748406758e+00 3.154621866019442944e+00 3.155099742635606663e+00 3.155579455265177913e+00 3.156060933241163990e+00 3.156544105570963321e+00 3.157028900946097671e+00 3.157515247752039844e+00 3.158003074078113759e+00 3.158492307727482018e+00 3.158982876227208525e+00 3.159474706838405034e+00 3.159967726566448309e+00 3.160461862171282998e+00 3.160957040177793331e+00 3.161453186886253430e+00 3.161950228382849115e+00 3.162448090550273871e+00 3.162946699078394541e+00 3.163445979474987180e+00 3.163945857076541746e+00 3.164446257059137402e+00 3.164947104449377768e+00 3.165448324135394120e+00 3.165949840877912980e+00 3.166451579321385879e+00 3.166953464005172858e+00 3.167455419374796577e+00 3.167957369793240829e+00 3.168459239552315676e+00 3.168960952884068760e+00 3.169462433972254356e+00 3.169963606963849490e+00 3.170464395980622907e+00 3.170964725130746231e+00 3.171464518520457077e+00 3.171963700265759023e+00 3.172462194504169108e+00 3.172959925406501291e+00 3.173456817188691215e+00 3.173952794123654275e+00 3.174447780553178777e+00 3.174941700899852837e+00 3.175434479679017929e+00 3.175926041510754416e+00 3.176416311131888381e+00 3.176905213408026452e+00 3.177392673345611041e+00 3.177878616103990694e+00 3.178362967007515305e+00 3.178845651557639318e+00 3.179326595445042258e+00 3.179805724561754143e+00 3.180282965013296437e+00 3.180758243130820784e+00 3.181231485483256183e+00 3.052501855671309272e+00 3.052375899649642843e+00 3.052250495186444645e+00 3.052125661030167247e+00 3.052001415839392440e+00 3.051877778180108525e+00 3.051754766523001372e+00 3.023700702294610743e+00 3.023861576369517135e+00 3.024021736908768965e+00 3.024181159559474086e+00 3.024339820073290497e+00 3.024497694310218865e+00
3.124495118272486049e+00 3.124781796455782246e+00 3.125073052684423924e+00 3.125368845629591164e+00 3.125669133294327384e+00 3.125973873018374594e+00 3.126283021483093894e+00 3.126596534716481468e+00 3.126914368098275609e+00 3.127236476365151230e+00 3.127562813616009851e+00 3.127893333317359303e+00 3.128227988308783569e+00 3.128566730808505891e+00 3.128909512419043359e+00 3.129256284132952537e+00 3.129606996338665237e+00 3.129961598826418889e+00 3.130320040794277059e+00 3.130682270854239668e+00 3.131048237038446924e+00 3.131417886805476503e+00 3.131791167046727331e+00 3.132168024092897962e+00 3.132548403720555985e+00 3.132932251158798032e+00 3.133319511096000820e+00 3.133710127686662794e+00 3.134104044558338131e+00 3.134501204818658682e+00 3.134901551062449609e+00 3.135305025378929411e+00 3.135711569359009410e+00 3.136121124102673186e+00 3.136533630226449265e+00 3.136949027870977069e+00 3.137367256708654129e+00 3.137788255951376115e+00 3.138211964358365247e+00 3.138638320244086177e+00 3.139067261486247151e+00 3.139498725533889534e+00 3.139932649415566157e+00 3.140368969747600048e+00 3.140807622742435079e+00 3.141248544217067895e+00 3.141691669601562875e+00 3.142136933947656807e+00 3.142584271937439944e+00 3.143033617892125875e+00 3.143484905780897787e+00 3.143938069229842203e+00 3.144393041530957333e+00 3.144849755651245360e+00 3.145308144241882875e+00 3.145768139647469930e+00 3.146229673915354130e+00 3.146692678805037335e+00 3.147157085797651188e+00 3.147622826105513028e+00 3.148089830681752410e+00 3.148558030230014460e+00 3.149027355214230717e+00 3.149497735868463710e+00 3.149969102206822580e+00 3.150441384033444869e+00 3.150914510952548486e+00 3.151388412378549386e+00 3.151863017546244095e+00 3.152338255521057508e+00 3.152814055209355537e+00 3.153290345368814585e+00 3.153767054618857646e+00 3.154244111451142807e+00 3.154721444240117467e+00 3.155198981253622303e+00 3.155676650663554739e+00 3.156154380556580374e+00 3.156632098944905707e+00 3.157109733777090810e+00 3.157587212948920197e+00 3.158064464314313646e+00 3.158541415696288990e+00 3.159017994897965309e+00 3.159494129713608324e+00 3.159969747939722406e+00 3.160444777386171467e+00 3.160919145887346904e+00 3.161392781313367095e+00 3.161865611581308411e+00 3.162337564666472645e+00 3.162808568613679761e+00 3.163278551548593498e+00 3.163747441689070072e+00 3.164215167356529967e+00 3.164681656987354152e+00 3.165146839144302504e+00 3.165610642527943330e+00 3.166072995988106431e+00 3.166533828535345929e+00 3.166993069352414647e+00 3.167450647805752251e+00 3.167906493456974282e+00 3.168360536074372735e+00 3.168812705644416639e+00 3.169262932383252185e+00 3.169711146748204200e+00 3.041692960014863889e+00 3.041573592190781827e+00 3.041454766784174257e+00 3.041336501561575201e+00 3.041218814201612108e+00 3.041101722292422593e+00 3.040985243329088039e+00 3.040869394711080531e+00 3.013054970067940097e+00 3.013206679317940839e+00 3.013357662592437869e+00 3.013507896929935814e+00
3.115311775466905964e+00 3.115584405724844075e+00 3.115861387326109178e+00 3.116142680855486624e+00 3.116428246262019641e+00 3.116718042863680704e+00 3.117012029352139280e+00 3.117310163797611722e+00 3.117612403653797326e+00 3.117918705762906306e+00 3.118229026360769929e+00 3.118543321082040354e+00 3.118861544965477073e+00 3.119183652459321276e+00 3.119509597426755487e+00 3.119839333151453342e+00 3.120172812343211977e+00 3.120509987143676778e+00 3.120850809132148296e+00 3.121195229331481968e+00 3.121543198214066006e+00 3.121894665707895200e+00 3.122249581202725999e+00 3.122607893556319514e+00 3.122969551100770236e+00 3.123334501648923567e+00 3.123702692500875511e+00 3.124074070450561180e+00 3.124448581792429458e+00 3.124826172328198925e+00 3.125206787373705719e+00 3.125590371765828213e+00 3.125976869869506736e+00 3.126366225584837011e+00 3.126758382354254184e+00 3.127153283169800346e+00 3.127550870580474207e+00 3.127951086699662930e+00 3.128353873212658343e+00 3.128759171384257520e+00 3.129166922066437984e+00 3.129577065706123928e+00 3.129989542353026621e+00 3.130404291667567840e+00 3.130821252928882359e+00 3.131240365042901708e+00 3.131661566550515641e+00 3.132084795635809549e+00 3.132509990134385802e+00 3.132937087541753929e+00 3.133366025021806056e+00 3.133796739415359855e+00 3.134229167248783643e+00 3.134663244742689869e+00 3.135098907820705882e+00 3.135536092118316187e+00 3.135974732991777980e+00 3.136414765527104187e+00 3.136856124549121105e+00 3.137298744630593994e+00 3.137742560101419276e+00 3.138187505057886018e+00 3.138633513372004025e+00 3.139080518700896327e+00 3.139528454496258281e+00 3.139977254013877506e+00 3.140426850323218222e+00 3.140877176317065089e+00 3.141328164721228777e+00 3.141779748104311043e+00 3.142231858887523988e+00 3.142684429354570597e+00 3.143137391661576796e+00 3.143590677847079906e+00 3.144044219842069499e+00 3.144497949480075771e+00 3.144951798507315210e+00 3.145405698592878441e+00 3.145859581338969591e+00 3.146313378291186069e+00 3.146767020948849414e+00 3.147220440775372996e+00 3.147673569208675026e+00 3.148126337671628416e+00 3.148578677582550167e+00 3.149030520365726282e+00 3.149481797461973098e+00 3.149932440339229700e+00 3.150382380503181867e+00 3.150831549507918883e+00 3.151279878966612991e+00 3.151727300562229939e+00 3.152173746058260395e+00 3.152619147309475789e+00 3.153063436272704578e+00 3.153506545017626284e+00 3.153948405737582839e+00 3.154388950760405930e+00 3.154828112559255437e+00 3.155265823763470312e+00 3.155702017169428331e+00 3.156136625751411628e+00 3.156569582672478447e+00 3.157000821295337545e+00 3.157430275193221725e+00 3.157857878160763576e+00 3.158283564224864559e+00 3.158707267655557427e+00 3.159128922976866871e+00 3.031313142233638125e+00 3.031200760781347814e+00 3.031088928038596197e+00 3.030977660724585743e+00 3.030866975470299263e+00 3.030756888816073857e+00 3.030647417209183292e+00 3.030538577001444800e+00 3.002905564949645889e+00 3.003048286021711366e+00
3.106648735632074665e+00 3.106907514472764031e+00 3.107170421346212574e+00 3.107437418734491530e+00 3.107708468515901767e+00 3.107983531969492397e+00 3.108262569779656204e+00 3.108545542040813459e+00 3.108832408262176994e+00 3.109123127372599438e+00 3.109417657725503492e+00 3.109715957103897921e+00 3.110017982725471253e+00 3.110323691247774747e+00 3.110633038773482184e+00 3.110945980855736703e+00 3.111262472503579790e+00 3.111582468187458872e+00 3.111905921844822842e+00 3.112232786885797964e+00 3.112563016198942378e+00 3.112896562157090763e+00 3.113233376623272708e+00 3.113573410956719023e+00 3.113916616018943540e+00 3.114262942179915505e+00 3.114612339324302148e+00 3.114964756857801387e+00 3.115320143713552259e+00 3.115678448358622177e+00 3.116039618800580779e+00 3.116403602594150613e+00 3.116770346847936413e+00 3.117139798231235659e+00 3.117511902980927729e+00 3.117886606908442548e+00 3.118263855406805174e+00 3.118643593457759877e+00 3.119025765638973713e+00 3.119410316131312033e+00 3.119797188726197490e+00 3.120186326833038759e+00 3.120577673486737869e+00 3.120971171355273910e+00 3.121366762747360468e+00 3.121764389620174107e+00 3.122163993587161457e+00 3.122565515925917801e+00 3.122968897586133163e+00 3.123374079197617004e+00 3.123781001078391295e+00 3.124189603242851554e+00 3.124599825410000253e+00 3.125011607011749515e+00 3.125424887201289526e+00 3.125839604861525789e+00 3.126255698613583434e+00 3.126673106825376358e+00 3.127091767620241658e+00 3.127511618885637112e+00 3.127932598281904397e+00 3.128354643251091360e+00 3.128777691025836916e+00 3.129201678638316775e+00 3.129626542929247801e+00 3.130052220556950981e+00 3.130478648006470799e+00 3.130905761598750114e+00 3.131333497499865004e+00 3.131761791730304445e+00 3.132190580174312622e+00 3.132619798589274751e+00 3.133049382615158418e+00 3.133479267784000655e+00 3.133909389529447864e+00 3.134339683196333493e+00 3.134770084050311656e+00 3.135200527287524963e+00 3.135630948044322963e+00 3.136061281407014789e+00 3.136491462421668430e+00 3.136921426103940647e+00 3.137351107448952625e+00 3.137780441441191392e+00 3.138209363064454305e+00 3.138637807311817518e+00 3.139065709195643539e+00 3.139493003757609202e+00 3.139919626078769621e+00 3.140345511289640346e+00 3.140770594580311492e+00 3.141194811210577420e+00 3.141618096520091719e+00 3.142040385938539515e+00 3.142461614995828434e+00 3.142881719332293322e+00 3.143300634708917851e+00 3.143718297017563224e+00 3.144134642291213311e+00 3.144549606714222456e+00 3.144963126632573935e+00 3.145375138564139750e+00 3.145785579208944860e+00 3.146194385459433196e+00 3.146601494410727895e+00 3.147006843370895091e+00 3.147410369871195712e+00 3.147812011676335509e+00 3.148211706794700415e+00 3.148609393488587038e+00 3.149005010284414485e+00 3.021479813547640170e+00 3.021374281178989651e+00 3.021269300496470578e+00 3.021164887193902526e+00 3.021061056877028861e+00 3.020957825061238555e+00 3.020855207169302226e+00 3.020753218529124595e+00
3.098499071025326401e+00 3.098744182656586688e+00 3.098993202197491303e+00 3.099246094012479080e+00 3.099502821893805216e+00 3.099763349065894236e+00 3.100027638189765788e+00 3.100295651367542593e+00 3.100567350147038326e+00 3.100842695526423665e+00 3.101121647958966943e+00 3.101404167357862285e+00 3.101690213101129689e+00 3.101979744036593711e+00 3.102272718486946079e+00 3.102569094254880699e+00 3.102868828628311260e+00 3.103171878385664773e+00 3.103478199801253723e+00 3.103787748650726819e+00 3.104100480216597457e+00 3.104416349293846800e+00 3.104735310195609888e+00 3.105057316758933705e+00 3.105382322350615176e+00 3.105710279873114654e+00 3.106041141770546687e+00 3.106374860034747609e+00 3.106711386211415515e+00 3.107050671406331954e+00 3.107392666291653782e+00 3.107737321112283180e+00 3.108084585692310498e+00 3.108434409441533486e+00 3.108786741362048911e+00 3.109141530054918778e+00 3.109498723726910718e+00 3.109858270197307650e+00 3.110220116904795162e+00 3.110584210914416836e+00 3.110950498924602403e+00 3.111318927274268287e+00 3.111689441949986534e+00 3.112061988593224360e+00 3.112436512507655184e+00 3.112812958666536289e+00 3.113191271720153974e+00 3.113571396003341984e+00 3.113953275543058563e+00 3.114336854066037663e+00 3.114722075006503665e+00 3.115108881513946493e+00 3.115497216460971330e+00 3.115887022451198973e+00 3.116278241827242113e+00 3.116670816678734912e+00 3.117064688850428311e+00 3.117459799950343058e+00 3.117856091357984916e+00 3.118253504232619377e+00 3.118651979521600115e+00 3.119051457968758712e+00 3.119451880122850351e+00 3.119853186346053242e+00 3.120255316822520886e+00 3.120658211566991636e+00 3.121061810433447548e+00 3.121466053123826079e+00 3.121870879196779303e+00 3.122276228076486859e+00 3.122682039061511095e+00 3.123088251333705045e+00 3.123494803967160394e+00 3.123901635937203825e+00 3.124308686129435575e+00 3.124715893348808837e+00 3.125123196328753572e+00 3.125530533740333627e+00 3.125937844201447824e+00 3.126345066286066565e+00 3.126752138533500869e+00 3.127158999457711364e+00 3.127565587556643933e+00 3.127971841321599555e+00 3.128377699246637000e+00 3.128783099837998627e+00 3.129187981623565928e+00 3.129592283162341726e+00 3.129995943053954122e+00 3.130398899948183988e+00 3.130801092554513776e+00 3.131202459651694525e+00 3.131602940097330645e+00 3.132002472837482454e+00 3.132400996916282487e+00 3.132798451485561575e+00 3.133194775814491795e+00 3.133589909299232090e+00 3.133983791472588099e+00 3.134376362013672868e+00 3.134767560757575122e+00 3.135157327705025754e+00 3.135545603032070971e+00 3.135932327099739236e+00 3.136317440463707307e+00 3.136700883883958735e+00 3.137082598334441030e+00 3.137462525012709502e+00 3.137840605349561329e+00 3.138216781018658530e+00 3.138590993946136276e+00 3.138963186320194776e+00 3.139333300600672949e+00 3.012184410436856474e+00 3.012085587132836473e+00 3.011987315259765374e+00 3.011889609508273669e+00 3.011792484481501386e+00 3.011695954692965138e+00
3.090856306253531915e+00 3.091087922943831501e+00 3.091323230410519596e+00 3.091562194886869452e+00 3.091804782065197710e+00 3.092050957101040609e+00 3.092300684617407924e+00 3.092553928709112832e+00 3.092810652947172834e+00 3.093070820383289288e+00 3.093334393554398876e+00 3.093601334487303678e+00 3.093871604703370526e+00 3.094145165223308958e+00 3.094421976572023336e+00 3.094701998783533803e+00 3.094985191405980274e+00 3.095271513506692163e+00 3.095560923677336262e+00 3.095853380039135683e+00 3.096148840248165168e+00 3.096447261500715697e+00 3.096748600538735463e+00 3.097052813655340575e+00 3.097359856700398595e+00 3.097669685086189784e+00 3.097982253793129193e+00 3.098297517375572685e+00 3.098615429967682466e+00 3.098935945289375660e+00 3.099259016652333720e+00 3.099584596966084238e+00 3.099912638744159565e+00 3.100243094110315845e+00 3.100575914804825750e+00 3.100911052190841843e+00 3.101248457260822988e+00 3.101588080643035372e+00 3.101929872608114813e+00 3.102273783075700564e+00 3.102619761621132621e+00 3.102967757482220534e+00 3.103317719566068611e+00 3.103669596455975288e+00 3.104023336418393342e+00 3.104378887409951382e+00 3.104736197084544180e+00 3.105095212800482951e+00 3.105455881627705139e+00 3.105818150355050822e+00 3.106181965497597286e+00 3.106547273304054446e+00 3.106914019764217105e+00 3.107282150616480720e+00 3.107651611355411791e+00 3.108022347239376870e+00 3.108394303298227079e+00 3.108767424341038144e+00 3.109141654963908596e+00 3.109516939557806836e+00 3.109893222316475470e+00 3.110270447244385394e+00 3.110648558164743172e+00 3.111027498727549467e+00 3.111407212417702350e+00 3.111787642563154765e+00 3.112168732343116417e+00 3.112550424796304949e+00 3.112932662829237973e+00 3.113315389224574847e+00 3.113698546649497523e+00 3.114082077664139803e+00 3.114465924730048574e+00 3.114850030218693888e+00 3.115234336420014571e+00 3.115618785550999803e+00 3.116003319764311552e+00 3.116387881156937656e+00 3.116772411778883978e+00 3.117156853641894543e+00 3.117541148728208089e+00 3.117925238999339932e+00 3.118309066404898466e+00 3.118692572891424764e+00 3.119075700411259255e+00 3.119458390931436398e+00 3.119840586442600205e+00 3.120222228967941991e+00 3.120603260572158977e+00 3.120983623370433779e+00 3.121363259537430324e+00 3.121742111316303969e+00 3.122120121027732953e+00 3.122497231078954272e+00 3.122873383972819106e+00 3.123248522316854014e+00 3.123622588832331015e+00 3.123995526363346986e+00 3.124367277885905736e+00 3.124737786517006288e+00 3.125106995523731612e+00 3.125474848332336464e+00 3.125841288537339224e+00 3.126206259910604413e+00 3.126569706410425198e+00 3.126931572190597031e+00 3.127291801609485944e+00 3.127650339239082200e+00 3.128007129874048609e+00 3.128362118540751080e+00 3.128715250506274526e+00 3.129066471287424989e+00 3.129415726659708685e+00 3.129762962666295056e+00 3.130108125626952287e+00 3.130451162146963728e+00 3.003326608722464375e+00 3.003234899761212606e+00 3.003143752534386479e+00
3.083714405417812721e+00 3.083932687830465369e+00 3.084154446684464368e+00 3.084379650069752898e+00 3.084608265566202157e+00 3.084840260247615262e+00 3.085075600685800001e+00 3.085314252954710845e+00 3.085556182634663358e+00 3.085801354816623210e+00 3.086049734106557807e+00 3.086301284629866970e+00 3.086555970035875340e+00 3.086813753502406055e+00 3.087074597740411264e+00 3.087338464998686138e+00 3.087605317068640609e+00 3.087875115289149708e+00 3.088147820551467415e+00 3.088423393304213338e+00 3.088701793558425557e+00 3.088982980892684971e+00 3.089266914458304480e+00 3.089553552984589668e+00 3.089842854784166537e+00 3.090134777758375417e+00 3.090429279402732821e+00 3.090726316812462571e+00 3.091025846688090439e+00 3.091327825341108060e+00 3.091632208699697681e+00 3.091938952314531530e+00 3.092248011364626681e+00 3.092559340663273648e+00 3.092872894664020933e+00 3.093188627466731067e+00 3.093506492823697496e+00 3.093826444145822308e+00 3.094148434508862344e+00 3.094472416659731273e+00 3.094798343022866938e+00 3.095126165706662658e+00 3.095455836509953595e+00 3.095787306928566185e+00 3.096120528161928842e+00 3.096455451119738633e+00 3.096792026428690559e+00 3.097130204439259238e+00 3.097469935232544103e+00 3.097811168627166545e+00 3.098153854186226575e+00 3.098497941224309660e+00 3.098843378814557514e+00 3.099190115795783296e+00 3.099538100779643646e+00 3.099887282157866686e+00 3.100237608109527088e+00 3.100589026608372656e+00 3.100941485430205535e+00 3.101294932160306050e+00 3.101649314200911611e+00 3.102004578778738253e+00 3.102360672952552800e+00 3.102717543620787666e+00 3.103075137529204497e+00 3.103433401278597792e+00 3.103792281332545144e+00 3.104151724025197012e+00 3.104511675569110007e+00 3.104872082063119709e+00 3.105232889500250781e+00 3.105594043775667945e+00 3.105955490694663812e+00 3.106317175980678691e+00 3.106679045283363028e+00 3.107041044186666046e+00 3.107403118216959914e+00 3.107765212851198555e+00 3.108127273525101320e+00 3.108489245641369525e+00 3.108851074577930529e+00 3.109212705696207557e+00 3.109574084349414402e+00 3.109935155890878100e+00 3.110295865682378036e+00 3.110656159102515694e+00 3.111015981555094179e+00 3.111375278477527928e+00 3.111733995349259096e+00 3.112092077700199688e+00 3.112449471119182576e+00 3.112806121262429393e+00 3.113161973862026866e+00 3.113516974734420462e+00 3.113871069788908041e+00 3.114224205036150384e+00 3.114576326596682154e+00 3.114927380709430871e+00 3.115277313740234977e+00 3.115626072190371243e+00 3.115973602705074619e+00 3.116319852082061193e+00 3.116664767280047155e+00 3.117008295427263764e+00 3.117350383829966098e+00 3.117690979980935140e+00 3.118030031567968319e+00 3.118367486482361173e+00 3.118703292827378792e+00 3.119037398926706839e+00 3.119369753332894568e+00 3.119700304835774318e+00 3.120029002470865453e+00 3.120355795527756992e+00 3.120680633558466699e+00 3.121003466385779301e+00 3.121324244111553181e+00 3.121642917125006633e+00 3.121959436110969044e+00
3.077067760233470395e+00 3.077272857735338096e+00 3.077481219955595204e+00 3.077692816830035927e+00 3.077907617814957586e+00 3.078125591890982449e+00 3.078346707566943063e+00 3.078570932883836875e+00 3.078798235418847451e+00 3.079028582289430105e+00 3.079261940157469013e+00 3.079498275233496063e+00 3.079737553280978091e+00 3.079979739620670287e+00 3.080224799135035330e+00 3.080472696272727795e+00 3.080723395053144298e+00 3.080976859071039353e+00 3.081233051501206521e+00 3.081491935103221724e+00 3.081753472226255841e+00 3.082017624813947254e+00 3.082284354409342342e+00 3.082553622159894591e+00 3.082825388822532986e+00 3.083099614768788577e+00 3.083376259989989432e+00 3.083655284102511107e+00 3.083936646353095945e+00 3.084220305624230996e+00 3.084506220439585888e+00 3.084794348969517763e+00 3.085084649036629045e+00 3.085377078121392724e+00 3.085671593367833143e+00 3.085968151589267183e+00 3.086266709274105846e+00 3.086567222591714899e+00 3.086869647398328809e+00 3.087173939243030407e+00 3.087480053373780287e+00 3.087787944743508373e+00 3.088097568016257455e+00 3.088408877573384448e+00 3.088721827519818497e+00 3.089036371690369709e+00 3.089352463656094283e+00 3.089670056730712933e+00 3.089989103977081708e+00 3.090309558213714780e+00 3.090631372021359180e+00 3.090954497749617946e+00 3.091278887523629226e+00 3.091604493250788455e+00 3.091931266627521602e+00 3.092259159146109049e+00 3.092588122101552095e+00 3.092918106598490535e+00 3.093249063558161982e+00 3.093580943725409149e+00 3.093913697675730656e+00 3.094247275822372689e+00 3.094581628423467734e+00 3.094916705589210615e+00 3.095252457289078496e+00 3.095588833359088188e+00 3.095925783509094309e+00 3.096263257330126084e+00 3.096601204301757004e+00 3.096939573799517120e+00 3.097278315102336421e+00 3.097617377400020189e+00 3.097956709800765207e+00 3.098296261338700397e+00 3.098635980981462978e+00 3.098975817637802166e+00 3.099315720165214838e+00 3.099655637377607409e+00 3.099995518052982124e+00 3.100335310941156219e+00 3.100674964771493958e+00 3.101014428260678191e+00 3.101353650120486360e+00 3.101692579065602029e+00 3.102031163821437953e+00 3.102369353131980922e+00 3.102707095767653911e+00 3.103044340533193335e+00 3.103381036275541849e+00 3.103717131891755354e+00 3.104052576336921998e+00 3.104387318632089610e+00 3.104721307872209124e+00 3.105054493234078894e+00 3.105386823984301436e+00 3.105718249487244176e+00 3.106048719213004183e+00 3.106378182745374694e+00 3.106706589789817397e+00 3.107033890181429392e+00 3.107360033892913265e+00 3.107684971042540933e+00 3.108008651902116171e+00 3.108331026904931349e+00 3.108652046653713974e+00 3.108971661928567887e+00 3.109289823694903365e+00 3.109606483111357011e+00 3.109921591537694319e+00 3.110235100542702469e+00 3.110546961912067143e+00 3.110857127656225796e+00 3.111165550018208936e+00 3.111472181481456545e+00 3.111776974777614502e+00 3.112079882894304816e+00 3.112380859082872764e+00 3.112679856866106043e+00 3.112976830045926402e+00
3.070911179080751729e+00 3.071103230026598130e+00 3.071298336398932349e+00 3.071496469969917431e+00 3.071697602062506416e+00 3.071901703554074103e+00 3.072108744880116316e+00 3.072318696038005559e+00 3.072531526590812412e+00 3.072747205671193527e+00 3.072965701985336029e+00 3.073186983816967199e+00 3.073411019031427216e+00 3.073637775079802292e+00 3.073867219003120432e+00 3.074099317436607137e+00 3.074334036614005505e+00 3.074571342371954064e+00 3.074811200154429436e+00 3.075053575017243190e+00 3.075298431632606189e+00 3.075545734293749334e+00 3.075795446919602938e+00 3.076047533059538264e+00 3.076301955898167240e+00 3.076558678260198576e+00 3.076817662615358717e+00 3.077078871083362532e+00 3.077342265438949287e+00 3.077607807116970573e+00 3.077875457217539967e+00 3.078145176511234649e+00 3.078416925444359187e+00 3.078690664144258182e+00 3.078966352424689745e+00 3.079243949791254042e+00 3.079523415446872026e+00 3.079804708297322335e+00 3.080087786956831053e+00 3.080372609753714741e+00 3.080659134736073224e+00 3.080947319677541874e+00 3.081237122083086089e+00 3.081528499194853499e+00 3.081821407998078133e+00 3.082115805227026328e+00 3.082411647371001706e+00 3.082708890680392777e+00 3.083007491172771175e+00 3.083307404639037852e+00 3.083608586649615901e+00 3.083910992560688236e+00 3.084214577520485889e+00 3.084519296475612737e+00 3.084825104177426613e+00 3.085131955188451069e+00 3.085439803888841759e+00 3.085748604482886570e+00 3.086058311005552390e+00 3.086368877329070948e+00 3.086680257169561958e+00 3.086992404093702902e+00 3.087305271525428552e+00 3.087618812752673136e+00 3.087932980934148475e+00 3.088247729106157191e+00 3.088563010189442348e+00 3.088878776996068165e+00 3.089194982236339371e+00 3.089511578525747648e+00 3.089828518391950940e+00 3.090145754281786061e+00 3.090463238568307069e+00 3.090780923557854720e+00 3.091098761497151681e+00 3.091416704580427943e+00 3.091734704956564883e+00 3.092052714736272634e+00 3.092370685999283442e+00 3.092688570801573000e+00 3.093006321182598661e+00 3.093323889172562957e+00 3.093641226799689115e+00 3.093958286097524546e+00 3.094275019112252334e+00 3.094591377910021812e+00 3.094907314584298241e+00 3.095222781263216483e+00 3.095537730116957320e+00 3.095852113365126446e+00 3.096165883284151210e+00 3.096478992214678261e+00 3.096791392568984946e+00 3.097103036838393830e+00 3.097413877600693421e+00 3.097723867527561570e+00 3.098032959391994190e+00 3.098341106075730877e+00 3.098648260576684965e+00 3.098954376016368251e+00 3.099259405647316612e+00 3.099563302860508518e+00 3.099866021192780430e+00 3.100167514334235541e+00 3.100467736135641861e+00 3.100766640615824077e+00 3.101064181969043876e+00 3.101360314572366494e+00 3.101654992993015725e+00 3.101948171995712489e+00 3.102239806549999646e+00 3.102529851837545927e+00 3.102818263259432108e+00 3.103104996443419417e+00 3.103390007251189076e+00 3.103673251785566745e+00 3.103954686397717211e+00 3.104234267694313321e+00 3.104511952544677378e+00
3.065239876945958564e+00 3.065419008939486822e+00 3.065600989322334602e+00 3.065785791694873197e+00 3.065973389238286995e+00 3.066163754718011614e+00 3.066356860487232883e+00 3.066552678490447548e+00 3.066751180267079491e+00 3.066952336955155900e+00 3.067156119295042060e+00 3.067362497633235208e+00 3.067571441926214781e+00 3.067782921744351743e+00 3.067996906275875180e+00 3.068213364330897530e+00 3.068432264345493099e+00 3.068653574385840077e+00 3.068877262152412744e+00 3.069103294984231844e+00 3.069331639863175365e+00 3.069562263418337711e+00 3.069795131930451504e+00 3.070030211336360004e+00 3.070267467233544600e+00 3.070506864884710474e+00 3.070748369222422447e+00 3.070991944853796785e+00 3.071237556065245844e+00 3.071485166827276458e+00 3.071734740799340724e+00 3.071986241334738299e+00 3.072239631485571998e+00 3.072494874007756227e+00 3.072751931366071165e+00 3.073010765739275119e+00 3.073271339025261728e+00 3.073533612846267804e+00 3.073797548554132675e+00 3.074063107235605941e+00 3.074330249717700969e+00 3.074598936573098573e+00 3.074869128125599538e+00 3.075140784455619336e+00 3.075413865405735248e+00 3.075688330586272112e+00 3.075964139380940487e+00 3.076241250952516104e+00 3.076519624248560625e+00 3.076799218007191694e+00 3.077079990762891626e+00 3.077361900852358279e+00 3.077644906420402116e+00 3.077928965425878793e+00 3.078214035647662605e+00 3.078500074690665222e+00 3.078787039991885077e+00 3.079074888826502043e+00 3.079363578314004091e+00 3.079653065424356573e+00 3.079943306984202156e+00 3.080234259683097164e+00 3.080525880079786116e+00 3.080818124608506015e+00 3.081110949585325720e+00 3.081404311214513747e+00 3.081698165594945582e+00 3.081992468726530099e+00 3.082287176516677274e+00 3.082582244786784997e+00 3.082877629278760967e+00 3.083173285661566343e+00 3.083469169537789156e+00 3.083765236450240810e+00 3.084061441888577448e+00 3.084357741295945754e+00 3.084654090075650945e+00 3.084950443597841652e+00 3.085246757206224988e+00 3.085542986224789175e+00 3.085839085964555473e+00 3.086135011730340771e+00 3.086430718827538833e+00 3.086726162568917076e+00 3.087021298281428017e+00 3.087316081313031368e+00 3.087610467039534345e+00 3.087904410871435079e+00 3.088197868260783796e+00 3.088490794708047549e+00 3.088783145768984273e+00 3.089074877061526614e+00 3.089365944272666642e+00 3.089656303165347673e+00 3.089945909585358752e+00 3.090234719468231805e+00 3.090522688846140564e+00 3.090809773854794162e+00 3.091095930740337838e+00 3.091381115866243423e+00 3.091665285720199829e+00 3.091948396920999098e+00 3.092230406225410455e+00 3.092511270535057033e+00 3.092790946903273053e+00 3.093069392541959228e+00 3.093346564828420409e+00 3.093622421312197002e+00 3.093896919721878636e+00 3.094170017971902276e+00 3.094441674169337464e+00 3.094711846620649798e+00 3.094980493838450197e+00 3.095247574548219749e+00 3.095513047695015452e+00 3.095776872450150652e+00 3.096039008217857713e+00 3.096299414641914716e+00 3.096558051612257056e+00
3.060049466216047342e+00 3.060215796348572326e+00 3.060384769915985625e+00 3.060556362340022929e+00 3.060730548653012306e+00 3.060907303501112953e+00 3.061086601147616104e+00 3.061268415476296578e+00 3.061452719994822047e+00 3.061639487838214713e+00 3.061828691772367161e+00 3.062020304197615950e+00 3.062214297152366260e+00 3.062410642316769849e+00 3.062609311016459390e+00 3.062810274226334339e+00 3.063013502574397418e+00 3.063218966345651051e+00 3.063426635486037775e+00 3.063636479606437923e+00 3.063848467986719726e+00 3.064062569579836914e+00 3.064278753015981849e+00 3.064496986606787932e+00 3.064717238349582207e+00 3.064939475931688140e+00 3.065163666734781245e+00 3.065389777839291341e+00 3.065617776028852770e+00 3.065847627794810126e+00 3.066079299340764397e+00 3.066312756587172839e+00 3.066547965175995483e+00 3.066784890475386050e+00 3.067023497584434377e+00 3.067263751337951927e+00 3.067505616311305250e+00 3.067749056825293419e+00 3.067994036951072534e+00 3.068240520515122860e+00 3.068488471104262594e+00 3.068737852070702044e+00 3.068988626537145770e+00 3.069240757401932029e+00 3.069494207344217962e+00 3.069748938829206519e+00 3.070004914113412031e+00 3.070262095249967516e+00 3.070520444093974621e+00 3.070779922307887322e+00 3.071040491366940461e+00 3.071302112564612052e+00 3.071564747018125097e+00 3.071828355673986710e+00 3.072092899313562775e+00 3.072358338558688118e+00 3.072624633877312217e+00 3.072891745589180434e+00 3.073159633871545005e+00 3.073428258764915100e+00 3.073697580178833100e+00 3.073967557897685499e+00 3.074238151586546230e+00 3.074509320797045753e+00 3.074781024973272547e+00 3.075053223457703933e+00 3.075325875497162187e+00 3.075598940248797764e+00 3.075872376786101370e+00 3.076146144104940472e+00 3.076420201129617116e+00 3.076694506718955502e+00 3.076969019672405992e+00 3.077243698736178867e+00 3.077518502609389639e+00 3.077793389950232772e+00 3.078068319382173179e+00 3.078343249500153256e+00 3.078618138876818566e+00 3.078892946068763958e+00 3.079167629622790781e+00 3.079442148082181419e+00 3.079716459992986266e+00 3.079990523910325795e+00 3.080264298404703283e+00 3.080537742068326867e+00 3.080810813521445812e+00 3.081083471418691211e+00 3.081355674455428684e+00 3.081627381374115071e+00 3.081898550970661343e+00 3.082169142100802617e+00 3.082439113686471721e+00 3.082708424722171436e+00 3.082977034281353834e+00 3.083244901522797399e+00 3.083511985696985036e+00 3.083778246152479419e+00 3.084043642342296554e+00 3.084308133830274468e+00 3.084571680297440111e+00 3.084834241548365608e+00 3.085095777517524507e+00 3.085356248275629820e+00 3.085615614035972953e+00 3.085873835160747536e+00 3.086130872167359041e+00 3.086386685734727298e+00 3.086641236709572134e+00 3.086894486112683467e+00 3.087146395145175415e+00 3.087396925194726194e+00 3.087646037841793589e+00 3.087893694865818439e+00 3.088139858251397030e+00 3.088384490194442833e+00 3.088627553108317159e+00 3.088869009629935380e+00 3.089108822625854067e+00
3.055335948293320225e+00 3.055489583360922801e+00 3.055645658823695765e+00 3.055804151919199185e+00 3.055965039525142757e+00 3.056128298162427814e+00 3.056293903998236416e+00 3.056461832849172833e+00 3.056632060184459210e+00 3.056804561129175202e+00 3.056979310467555777e+00 3.057156282646332102e+00 3.057335451778128821e+00 3.057516791644905307e+00 3.057700275701450199e+00 3.057885877078925230e+00 3.058073568588454361e+00 3.058263322724766642e+00 3.058455111669883042e+00 3.058648907296853903e+00 3.058844681173543911e+00 3.059042404566463258e+00 3.059242048444648532e+00 3.059443583483588469e+00 3.059646980069194999e+00 3.059852208301824472e+00 3.060059238000341963e+00 3.060268038706231764e+00 3.060478579687751832e+00 3.060690829944136215e+00 3.060904758209837873e+00 3.061120332958819024e+00 3.061337522408883238e+00 3.061556294526049715e+00 3.061776617028975078e+00 3.061998457393411144e+00 3.062221782856708874e+00 3.062446560422364072e+00 3.062672756864601276e+00 3.062900338733000716e+00 3.063129272357164812e+00 3.063359523851423294e+00 3.063591059119579185e+00 3.063823843859692531e+00 3.064057843568902761e+00 3.064293023548287920e+00 3.064529348907760742e+00 3.064766784571004710e+00 3.065005295280441189e+00 3.065244845602236090e+00 3.065485399931338062e+00 3.065726922496555318e+00 3.065969377365661774e+00 3.066212728450539160e+00 3.066456939512351543e+00 3.066701974166750500e+00 3.066947795889111816e+00 3.067194368019805495e+00 3.067441653769492405e+00 3.067689616224450244e+00 3.067938218351933699e+00 3.068187423005554137e+00 3.068437192930695279e+00 3.068687490769947956e+00 3.068938279068577302e+00 3.069189520280009909e+00 3.069441176771350310e+00 3.069693210828916108e+00 3.069945584663801519e+00 3.070198260417458247e+00 3.070451200167301664e+00 3.070704365932336533e+00 3.070957719678801379e+00 3.071211223325831963e+00 3.071464838751149173e+00 3.071718527796752696e+00 3.071972252274643989e+00 3.072225973972555479e+00 3.072479654659702408e+00 3.072733256092542220e+00 3.072986740020549945e+00 3.073240068192010455e+00 3.073493202359813381e+00 3.073746104287266689e+00 3.073998735753916467e+00 3.074251058561374705e+00 3.074503034539159074e+00 3.074754625550534914e+00 3.075005793498365669e+00 3.075256500330972198e+00 3.075506708047986315e+00 3.075756378706220318e+00 3.076005474425529407e+00 3.076253957394678107e+00 3.076501789877210680e+00 3.076748934217313547e+00 3.076995352845686149e+00 3.077241008285399371e+00 3.077485863157755297e+00 3.077729880188144751e+00 3.077973022211894616e+00 3.078215252180108052e+00 3.078456533165505604e+00 3.078696828368244987e+00 3.078936101121742652e+00 3.079174314898477594e+00 3.079411433315787150e+00 3.079647420141647274e+00 3.079882239300441249e+00 3.080115854878711978e+00 3.080348231130900505e+00 3.080579332485065436e+00 3.080809123548583273e+00 3.081037569113834973e+00 3.081264634163864535e+00 3.081490283878025593e+00 3.081714483637596924e+00 3.081937199031377972e+00 3.082158395861264388e+00
3.051095706000000352e+00 3.051236742699947602e+00 3.051380018505653879e+00 3.051525512466261691e+00 3.051673203300429904e+00 3.051823069399160371e+00 3.051975088828680072e+00 3.052129239333363664e+00 3.052285498338708880e+00 3.052443842954352782e+00 3.052604249977138640e+00 3.052766695894225890e+00 3.052931156886251163e+00 3.053097608830527943e+00 3.053266027304296859e+00 3.053436387588020384e+00 3.053608664668719719e+00 3.053782833243360084e+00 3.053958867722276427e+00 3.054136742232647972e+00 3.054316430622011858e+00 3.054497906461822065e+00 3.054681143051053205e+00 3.054866113419843376e+00 3.055052790333183665e+00 3.055241146294647603e+00 3.055431153550161483e+00 3.055622784091816424e+00 3.055816009661727506e+00 3.056010801755921769e+00 3.056207131628279061e+00 3.056404970294503975e+00 3.056604288536142189e+00 3.056805056904634554e+00 3.057007245725408939e+00 3.057210825102012475e+00 3.057415764920280665e+00 3.057622034852545578e+00 3.057829604361876896e+00 3.058038442706365601e+00 3.058248518943438299e+00 3.058459801934212852e+00 3.058672260347884198e+00 3.058885862666147037e+00 3.059100577187655379e+00 3.059316372032510944e+00 3.059533215146789331e+00 3.059751074307096363e+00 3.059969917125157757e+00 3.060189711052439421e+00 3.060410423384803735e+00 3.060632021267187586e+00 3.060854471698319479e+00 3.061077741535461971e+00 3.061301797499181632e+00 3.061526606178152310e+00 3.061752134033981054e+00 3.061978347406065115e+00 3.062205212516472930e+00 3.062432695474853528e+00 3.062660762283369031e+00 3.062889378841652022e+00 3.063118510951791773e+00 3.063348124323334698e+00 3.063578184578317654e+00 3.063808657256315460e+00 3.064039507819515951e+00 3.064270701657808793e+00 3.064502204093904059e+00 3.064733980388460566e+00 3.064965995745237315e+00 3.065198215316265351e+00 3.065430604207030285e+00 3.065663127481677463e+00 3.065895750168229572e+00 3.066128437263820228e+00 3.066361153739940892e+00 3.066593864547704662e+00 3.066826534623114942e+00 3.067059128892357212e+00 3.067291612277091239e+00 3.067523949699759278e+00 3.067756106088904478e+00 3.067988046384492851e+00 3.068219735543249893e+00 3.068451138543998535e+00 3.068682220393005533e+00 3.068912946129334518e+00 3.069143280830200382e+00 3.069373189616332098e+00 3.069602637657331101e+00 3.069831590177039438e+00 3.070060012458905252e+00 3.070287869851346940e+00 3.070515127773118635e+00 3.070741751718675694e+00 3.070967707263533075e+00 3.071192960069625943e+00 3.071417475890659610e+00 3.071641220577462139e+00 3.071864160083321860e+00 3.072086260469326646e+00 3.072307487909687218e+00 3.072527808697059104e+00 3.072747189247848176e+00 3.072965596107509523e+00 3.073182995955832997e+00 3.073399355612218553e+00 3.073614642040932488e+00 3.073828822356355239e+00 3.074041863828211429e+00 3.074253733886782136e+00 3.074464400128100738e+00 3.074673830319131884e+00 3.074881992402929143e+00 3.075088854503772673e+00 3.075294384932287350e+00 3.075498552190536916e+00 3.075701324977095474e+00
3.047325496745597828e+00 3.047454021852709527e+00 3.047584586365354564e+00 3.047717171141318016e+00 3.047851756737086859e+00 3.047988323410468769e+00 3.048126851123252212e+00 3.048267319543907394e+00 3.048409708050336064e+00 3.048553995732657285e+00 3.048700161396041164e+00 3.048848183563580783e+00 3.048998040479208083e+00 3.049149710110651501e+00 3.049303170152433129e+00 3.049458398028910278e+00 3.049615370897353461e+00 3.049774065651070565e+00 3.049934458922565206e+00 3.050096527086741727e+00 3.050260246264142161e+00 3.050425592324231161e+00 3.050592540888713788e+00 3.050761067334893273e+00 3.050931146799070071e+00 3.051102754179976451e+00 3.051275864142249716e+00 3.051450451119941842e+00 3.051626489320070412e+00 3.051803952726197977e+00 3.051982815102059821e+00 3.052163049995215260e+00 3.052344630740742915e+00 3.052527530464971051e+00 3.052711722089235469e+00 3.052897178333682238e+00 3.053083871721097076e+00 3.053271774580769815e+00 3.053460859052396614e+00 3.053651097090007926e+00 3.053842460465934661e+00 3.054034920774804096e+00 3.054228449437566884e+00 3.054423017705557353e+00 3.054618596664580021e+00 3.054815157239032519e+00 3.055012670196052493e+00 3.055211106149697375e+00 3.055410435565150795e+00 3.055610628762958747e+00 3.055811655923291958e+00 3.056013487090237568e+00 3.056216092176113897e+00 3.056419440965816303e+00 3.056623503121183028e+00 3.056828248185392560e+00 3.057033645587377890e+00 3.057239664646272281e+00 3.057446274575873701e+00 3.057653444489132788e+00 3.057861143402663462e+00 3.058069340241277523e+00 3.058278003842534343e+00 3.058487102961318538e+00 3.058696606274430962e+00 3.058906482385202352e+00 3.059116699828125174e+00 3.059327227073503241e+00 3.059538032532116869e+00 3.059749084559907573e+00 3.059960351462678307e+00 3.060171801500805699e+00 3.060383402893971372e+00 3.060595123825904373e+00 3.060806932449137818e+00 3.061018796889780180e+00 3.061230685252293249e+00 3.061442565624286516e+00 3.061654406081320889e+00 3.061866174691719067e+00 3.062077839521389233e+00 3.062289368638656306e+00 3.062500730119095849e+00 3.062711892050383522e+00 3.062922822537141432e+00 3.063133489705798684e+00 3.063343861709448834e+00 3.063553906732715770e+00 3.063763592996622709e+00 3.063972888763459412e+00 3.064181762341657400e+00 3.064390182090659387e+00 3.064598116425794050e+00 3.064805533823144579e+00 3.065012402824422555e+00 3.065218692041831172e+00 3.065424370162933787e+00 3.065629405955510922e+00 3.065833768272416826e+00 3.066037426056429815e+00 3.066240348345094180e+00 3.066442504275556757e+00 3.066643863089395516e+00 3.066844394137437035e+00 3.067044066884565545e+00 3.067242850914521757e+00 3.067440715934690587e+00 3.067637631780873786e+00 3.067833568422051904e+00 3.068028495965132496e+00 3.068222384659681445e+00 3.068415204902640525e+00 3.068606927243025861e+00 3.068797522386613963e+00 3.068986961200601993e+00 3.069175214718256051e+00 3.069362254143536806e+00 3.069548050855700261e+00 3.069732576413885639e+00
3.044022446432805840e+00 3.044138536956390695e+00 3.044256468616314493e+00 3.044376224077355975e+00 3.044497785732034334e+00 3.044621135703003745e+00 3.044746255845491412e+00 3.044873127749772479e+00 3.045001732743684464e+00 3.045132051895181213e+00 3.045264066014922388e+00 3.045397755658906025e+00 3.045533101131133957e+00 3.045670082486316765e+00 3.045808679532618246e+00 3.045948871834434080e+00 3.046090638715208687e+00 3.046233959260288060e+00 3.046378812319810336e+00 3.046525176511630573e+00 3.046673030224283263e+00 3.046822351619978164e+00 3.046973118637633871e+00 3.047125308995943360e+00 3.047278900196475959e+00 3.047433869526814387e+00 3.047590194063723334e+00 3.047747850676352233e+00 3.047906816029474442e+00 3.048067066586754414e+00 3.048228578614051720e+00 3.048391328182753046e+00 3.048555291173141057e+00 3.048720443277790348e+00 3.048886760004998919e+00 3.049054216682243634e+00 3.049222788459674316e+00 3.049392450313632708e+00 3.049563177050201190e+00 3.049734943308781254e+00 3.049907723565703499e+00 3.050081492137862060e+00 3.050256223186378346e+00 3.050431890720292305e+00 3.050608468600283008e+00 3.050785930542411428e+00 3.050964250121892984e+00 3.051143400776894943e+00 3.051323355812357807e+00 3.051504088403843351e+00 3.051685571601406188e+00 3.051867778333489323e+00 3.052050681410841904e+00 3.052234253530461849e+00 3.052418467279560232e+00 3.052603295139546979e+00 3.052788709490036112e+00 3.052974682612878521e+00 3.053161186696206286e+00 3.053348193838501423e+00 3.053535676052687275e+00 3.053723605270229235e+00 3.053911953345263885e+00 3.054100692058737465e+00 3.054289793122568319e+00 3.054479228183819561e+00 3.054668968828892606e+00 3.054858986587732250e+00 3.055049252938051296e+00 3.055239739309561386e+00 3.055430417088226491e+00 3.055621257620523945e+00 3.055812232217717916e+00 3.056003312160147978e+00 3.056194468701523004e+00 3.056385673073232834e+00 3.056576896488663042e+00 3.056768110147523032e+00 3.056959285240183455e+00 3.057150392952014961e+00 3.057341404467744272e+00 3.057532290975805811e+00 3.057723023672711093e+00 3.057913573767411464e+00 3.058103912485676368e+00 3.058294011074465857e+00 3.058483840806314191e+00 3.058673372983710337e+00 3.058862578943485566e+00 3.059051430061196619e+00 3.059239897755513304e+00 3.059427953492605212e+00 3.059615568790525764e+00 3.059802715223597147e+00 3.059989364426790370e+00 3.060175488100104868e+00 3.060361058012941893e+00 3.060546046008475685e+00 3.060730424008015316e+00 3.060914164015367422e+00 3.061097238121186059e+00 3.061279618507316780e+00 3.061461277451134944e+00 3.061642187329872034e+00 3.061822320624933536e+00 3.062001649926207936e+00 3.062180147936361507e+00 3.062357787475122883e+00 3.062534541483556083e+00 3.062710383028319328e+00 3.062885285305907423e+00 3.063059221646883490e+00 3.063232165520092476e+00 3.063404090536856916e+00 3.063574970455160251e+00 3.063744779183806166e+00 3.063913490786566385e+00 3.064081079486301373e+00 3.064247519669066833e+00
3.041184044080488036e+00 3.041287767402393705e+00 3.041393134866968939e+00 3.041500130945638425e+00 3.041608739866473066e+00 3.041718945616356251e+00 3.041830731943194976e+00 3.041944082358159385e+00 3.042058980137959612e+00 3.042175408327158603e+00 3.042293349740518238e+00 3.042412786965376981e+00 3.042533702364066617e+00 3.042656078076357407e+00 3.042779896021940989e+00 3.042905137902943480e+00 3.043031785206472772e+00 3.043159819207198691e+00 3.043289220969964237e+00 3.043419971352431475e+00 3.043552051007756276e+00 3.043685440387295937e+00 3.043820119743350094e+00 3.043956069131927844e+00 3.044093268415550835e+00 3.044231697266083891e+00 3.044371335167594506e+00 3.044512161419246077e+00 3.044654155138216911e+00 3.044797295262651637e+00 3.044941560554635274e+00 3.045086929603205483e+00 3.045233380827385261e+00 3.045380892479243151e+00 3.045529442646988549e+00 3.045679009258085657e+00 3.045829570082398075e+00 3.045981102735359602e+00 3.046133584681171680e+00 3.046286993236023921e+00 3.046441305571341296e+00 3.046596498717058399e+00 3.046752549564915480e+00 3.046909434871776234e+00 3.047067131262976236e+00 3.047225615235689578e+00 3.047384863162316826e+00 3.047544851293901846e+00 3.047705555763563279e+00 3.047866952589953105e+00 3.048029017680733865e+00 3.048191726836077642e+00 3.048355055752181464e+00 3.048518980024809810e+00 3.048683475152850875e+00 3.048848516541891485e+00 3.049014079507814223e+00 3.049180139280408319e+00 3.049346671007003184e+00 3.049513649756110834e+00 3.049681050521094949e+00 3.049848848223846609e+00 3.050017017718481771e+00 3.050185533795051196e+00 3.050354371183263247e+00 3.050523504556225785e+00 3.050692908534195613e+00 3.050862557688344356e+00 3.051032426544535880e+00 3.051202489587115707e+00 3.051372721262710641e+00 3.051543095984041276e+00 3.051713588133742938e+00 3.051884172068195955e+00 3.052054822121367916e+00 3.052225512608659930e+00 3.052396217830765757e+00 3.052566912077534056e+00 3.052737569631841286e+00 3.052908164773467270e+00 3.053078671782978315e+00 3.053249064945616986e+00 3.053419318555191442e+00 3.053589406917974980e+00 3.053759304356604254e+00 3.053928985213979708e+00 3.054098423857175337e+00 3.054267594681337794e+00 3.054436472113599255e+00 3.054605030616979633e+00 3.054773244694296341e+00 3.054941088892069612e+00 3.055108537804423818e+00 3.055275566076993687e+00 3.055442148410819847e+00 3.055608259566243934e+00 3.055773874366803255e+00 3.055938967703113907e+00 3.056103514536752996e+00 3.056267489904134216e+00 3.056430868920374966e+00 3.056593626783158157e+00 3.056755738776585130e+00 3.056917180275018797e+00 3.057077926746920582e+00 3.057237953758673132e+00 3.057397236978396382e+00 3.057555752179750286e+00 3.057713475245725565e+00 3.057870382172422907e+00 3.058026449072817954e+00 3.058181652180513854e+00 3.058335967853476500e+00 3.058489372577757770e+00 3.058641842971201452e+00 3.058793355787131407e+00 3.058943887918025073e+00 3.059093416399167431e+00 3.059241918412287209e+00
3.038808137144909605e+00 3.038899551139158994e+00 3.038992413404777437e+00 3.039086710220789911e+00 3.039182427651659690e+00 3.039279551549227687e+00 3.039378067554683316e+00 3.039477961100568226e+00 3.039579217412808454e+00 3.039681821512779880e+00 3.039785758219402112e+00 3.039891012151260341e+00 3.039997567728763617e+00 3.040105409176326656e+00 3.040214520524582298e+00 3.040324885612627703e+00 3.040436488090291434e+00 3.040549311420438716e+00 3.040663338881295363e+00 3.040778553568808995e+00 3.040894938399032466e+00 3.041012476110535712e+00 3.041131149266847800e+00 3.041250940258922508e+00 3.041371831307634110e+00 3.041493804466298023e+00 3.041616841623216327e+00 3.041740924504253485e+00 3.041866034675433372e+00 3.041992153545563848e+00 3.042119262368887966e+00 3.042247342247756503e+00 3.042376374135327133e+00 3.042506338838287139e+00 3.042637217019602325e+00 3.042768989201285024e+00 3.042901635767188306e+00 3.043035136965823284e+00 3.043169472913198170e+00 3.043304623595678216e+00 3.043440568872869623e+00 3.043577288480524334e+00 3.043714762033465249e+00 3.043852969028532307e+00 3.043991888847550342e+00 3.044131500760314690e+00 3.044271783927598563e+00 3.044412717404177293e+00 3.044554280141874791e+00 3.044696450992625536e+00 3.044839208711556111e+00 3.044982531960082284e+00 3.045126399309027398e+00 3.045270789241754983e+00 3.045415680157316007e+00 3.045561050373616130e+00 3.045706878130597595e+00 3.045853141593431346e+00 3.045999818855733565e+00 3.046146887942786208e+00 3.046294326814779296e+00 3.046442113370060323e+00 3.046590225448403189e+00 3.046738640834285139e+00 3.046887337260174355e+00 3.047036292409835756e+00 3.047185483921642124e+00 3.047334889391895896e+00 3.047484486378166491e+00 3.047634252402631194e+00 3.047784164955428921e+00 3.047934201498022411e+00 3.048084339466566206e+00 3.048234556275286611e+00 3.048384829319866096e+00 3.048535135980832589e+00 3.048685453626961639e+00 3.048835759618676811e+00 3.048986031311461620e+00 3.049136246059269695e+00 3.049286381217948261e+00 3.049436414148655405e+00 3.049586322221287560e+00 3.049736082817907423e+00 3.049885673336172776e+00 3.050035071192768843e+00 3.050184253826842440e+00 3.050333198703433446e+00 3.050481883316908505e+00 3.050630285194395608e+00 3.050778381899214242e+00 3.050926151034306422e+00 3.051073570245665945e+00 3.051220617225762322e+00 3.051367269716963371e+00 3.051513505514955149e+00 3.051659302472155666e+00 3.051804638501123268e+00 3.051949491577961027e+00 3.052093839745715798e+00 3.052237661117768397e+00 3.052380933881218450e+00 3.052523636300261245e+00 3.052665746719555262e+00 3.052807243567582152e+00 3.052948105359998276e+00 3.053088310702972485e+00 3.053227838296518115e+00 3.053366666937810781e+00 3.053504775524495507e+00 3.053642143057982317e+00 3.053778748646727159e+00 3.053914571509502629e+00 3.054049590978651363e+00 3.054183786503326115e+00 3.054317137652717840e+00 3.054449624119264239e+00 3.054581225721841431e+00 3.054711922408944957e+00
