8.579842314148415028e+00 8.663785464405775016e+00 8.750720171544738690e+00 8.840764055948156397e+00 8.934041712871556129e+00 9.030685213269180167e+00 9.130834649136314596e+00 8.859314741500124768e+00 8.951573619202187970e+00 9.047152952781095436e+00 9.146189581728211948e+00 9.248828705383198567e+00 9.355224507296195924e+00 9.465540837120094864e+00 9.579951956285176706e+00 9.698643354498299729e+00 9.821812645013055842e+00 9.949670547653783004e+00 1.008244196976771256e+01 1.022036719665152837e+01 1.036370320458215311e+01 1.051272511141379873e+01 1.066772778182812509e+01 1.082902760679480814e+01 1.099696447967934709e+01 1.117190399480043617e+01 1.135423989818330526e+01 1.154439682489114283e+01 1.174283336278095113e+01 1.195004548899144226e+01 1.216657043313464648e+01 1.239299103028419324e+01 1.262994063774598175e+01 1.287810870265202112e+01 4.064729214916910394e+01 4.094118831778818901e+01 4.031046807666440657e+01 4.000160717274381739e+01 3.970336717738440768e+01 3.941542364263956699e+01 3.913746854657713925e+01 3.886920938583043039e+01 3.861036833142072311e+01 3.836068144292671889e+01 3.811989793651680003e+01 3.788777950275719775e+01 4.877817092256832154e+01 5.068973498240326592e+01 5.107059237058751222e+01 5.145940817746364360e+01 5.185635573211598626e+01 5.246275140626266165e+01 5.282325755873079487e+01 5.319075517529942942e+01 5.356537649133225187e+01 5.394725719196478764e+01 5.433653650620144049e+01 5.473335730385845466e+01 5.513786619543351719e+01 5.555021363498448750e+01 5.597055402610088493e+01 5.639904583105369085e+01 5.683585168321025805e+01 5.728113850280246311e+01 5.720914391479644934e+01 5.745924666270511239e+01 5.771676134662844504e+01 5.798181890302704744e+01 5.860554678103761006e+01 5.555971862006223461e+01 5.200754481780648319e+01 4.888915694150172442e+01 4.613008212064783464e+01 4.367197425443886516e+01 4.146847308988635916e+01 3.948227690993520866e+01 3.768303319525733031e+01 3.604579246672901860e+01 3.454985735554790693e+01 3.317791385155801009e+01 3.191536718523713390e+01 3.211630259102014406e+01 3.185966563270202911e+01 3.161181088693647823e+01 3.137246137695929349e+01 3.114135427059739314e+01 3.091824008018632952e+01 3.070288191907743069e+01 3.049505481024241149e+01 3.029454504289167005e+01 3.010114957339064645e+01 2.991467546708885195e+01 2.973493937797536901e+01 2.956176706334396087e+01 2.939499293089451371e+01 2.812067139796076276e+01 2.841599196801115212e+01 2.872194851572163543e+01 3.461545661929996243e+01 3.562156581225436724e+01 3.669360302705432275e+01 7.505252165257478225e+01 7.569958775459606670e+01 7.635693740346680158e+01 7.702471393752252027e+01 7.770306150455871830e+01 7.839212495846665263e+01 7.909204974740579530e+01 7.980298179304060113e+01 8.052506736034810331e+01 8.125845291748416344e+01 0.000000000000000000e+00 0.000000000000000000e+00 0.000000000000000000e+00 0.000000000000000000e+00 0.000000000000000000e+00 0.000000000000000000e+00 0.000000000000000000e+00 0.000000000000000000e+00
8.588530235344018493e+00 8.672593114121902147e+00 8.759652526307091236e+00 8.849826337057677961e+00 8.943239403312729152e+00 9.040024076030507061e+00 9.140320747085548092e+00 8.868130824012512292e+00 8.960518071949431729e+00 9.056231191021311133e+00 9.155407298382097991e+00 9.258191890818441294e+00 9.364739470827130319e+00 9.475214230401981297e+00 9.589790798804394001e+00 9.708655061384748208e+00 9.832005057429540784e+00 9.960051966049835670e+00 1.009302119032283329e+01 1.023115355127588266e+01 1.037470660489248075e+01 1.052395609715968661e+01 1.067919757431029204e+01 1.084074816789423146e+01 1.100894857720596498e+01 1.118416527497498691e+01 1.136679296618873636e+01 1.155725733457412652e+01 1.175601811675372588e+01 1.196357255058475566e+01 1.218045925189005274e+01 1.240726258295639539e+01 1.264461758712292827e+01 1.289321557690396602e+01 3.798021532434285774e+01 3.823838106783466628e+01 3.850159671627172031e+01 3.876995812403307440e+01 3.904356368346429207e+01 3.932251439566408635e+01 3.914290045825423903e+01 3.887472770126237975e+01 3.861596840012116161e+01 3.836635886874173451e+01 3.812564856134198976e+01 3.789359939138254418e+01 4.143390041030973947e+01 4.175958662710661429e+01 4.209165724144948939e+01 4.243024376191468150e+01 4.277548124790720863e+01 4.319313988828555750e+01 4.347520189206016283e+01 4.376238437004196413e+01 4.405477334695168423e+01 4.435245676638231060e+01 4.465552452966803543e+01 4.496406853536318948e+01 4.527818271931779748e+01 4.559796309533389547e+01 4.592350779638379521e+01 4.625491711636939129e+01 4.659229355239795467e+01 4.693574184754683642e+01 4.728536903408604530e+01 4.764128447712374026e+01 4.800359991863547293e+01 4.837242952183365929e+01 4.840337871912781509e+01 4.866798438329670518e+01 4.893873226373354157e+01 4.921573795594185441e+01 4.607124992141236675e+01 4.362064056221364439e+01 4.142344439901061293e+01 3.944259366067144867e+01 3.764791571966203776e+01 3.601460118467937832e+01 3.452206303493942130e+01 3.315307509290621368e+01 3.238228018285457921e+01 3.211672350863368308e+01 3.186023329476893196e+01 3.161251797754782800e+01 3.137330097192824852e+01 3.114231981194622989e+01 3.091932535248838576e+01 3.070408102749801671e+01 3.049636216013746548e+01 3.029595532083599707e+01 3.010265772951899166e+01 2.991627669864373473e+01 2.973662911396504427e+01 2.956354095022221173e+01 2.939684681918184950e+01 2.813026833109796954e+01 2.842561158406292421e+01 2.873158991990293032e+01 3.463653723199504242e+01 3.564326527692320923e+01 3.671596227715544103e+01 6.189428283400897612e+01 6.243509137040233981e+01 6.298407404007735977e+01 6.354132761463129953e+01 6.410694841095518370e+01 6.468103215769743031e+01 6.526367385318691561e+01 6.585496761442405500e+01 6.645500651673768289e+01 6.706388242369696684e+01 6.768168580685744473e+01 6.830850555491325338e+01 6.894442877181927543e+01 6.958954056344119010e+01 7.024392381228646798e+01 7.104541482314927237e+01 7.183597481760787673e+01 7.264618508600950975e+01
8.598531988934858816e+00 8.682727607359931099e+00 8.769925203208215336e+00 8.860242905075663700e+00 8.953805851370065128e+00 9.050746694043532159e+00 9.151206147133752467e+00 8.878302841716813276e+00 8.970832742913744440e+00 9.066694448734541112e+00 9.166025375660497687e+00 9.268971340931940972e+00 9.375687190442782537e+00 9.486337484533535758e+00 9.601097247979888394e+00 9.720152791270182391e+00 9.843702611176642137e+00 9.971958379670050832e+00 1.010514603142895318e+01 1.024350696157780405e+01 1.038729934688551282e+01 1.053679960550386774e+01 1.069230401246858442e+01 1.085413049067806135e+01 1.102262059997038790e+01 1.119814175031516079e+01 1.138108966911737774e+01 1.157189115730988860e+01 1.177100717442720601e+01 1.197893629937748550e+01 1.219621862136915169e+01 1.242344012466124248e+01 1.266123764181056721e+01 1.291030446327935977e+01 3.367376955174746911e+01 3.367528166408241930e+01 3.368043428519271743e+01 3.368922998150748782e+01 3.370167313590585678e+01 3.371776995287962109e+01 3.385251588131258416e+01 3.406395194633416423e+01 3.427905452632847272e+01 3.449787961895052746e+01 3.472048431510271627e+01 3.494692681438505133e+01 3.517726644046388174e+01 3.541156365632935632e+01 3.564988007940938530e+01 3.589227849650532676e+01 3.613882287851211572e+01 3.638957839488269030e+01 3.664461142779354219e+01 3.690398958596509260e+01 3.716778171808721254e+01 3.743605792579681690e+01 3.770888957615022008e+01 3.798634931352960109e+01 3.831369085333216873e+01 3.854224067832654299e+01 3.877439925700041812e+01 3.901021224048962210e+01 3.924972588306283683e+01 3.949298703810426758e+01 3.974004315330905257e+01 3.999094226504115568e+01 4.024573299180100605e+01 4.050446452674752607e+01 4.076718662921651770e+01 4.103394961517457062e+01 4.130480434654489130e+01 4.157980221933830478e+01 4.185899515051954722e+01 4.214243556353616782e+01 4.243017637243329432e+01 3.940891898098369239e+01 3.761852357298668181e+01 3.598887894404684573e+01 3.449950472002275603e+01 3.313325951188728169e+01 3.238742409229825370e+01 3.212198195300936732e+01 3.186559990470494697e+01 3.161798675880640275e+01 3.137886628014751977e+01 3.114797632927671245e+01 3.092506806596143321e+01 3.070990520897942844e+01 3.050226334773289594e+01 3.030192930162743181e+01 3.010870052352247583e+01 2.992238454388859381e+01 2.974279845260368660e+01 2.956976841558778091e+01 2.940312922371813542e+01 2.814411166354867788e+01 2.843952205312565695e+01 2.874556822960751745e+01 3.466286681746901621e+01 3.567036629516969271e+01 3.674388566100974884e+01 5.202714661945448427e+01 5.245788408155410565e+01 5.289452435211103420e+01 5.333711645786561206e+01 5.378570812195943773e+01 5.424034563828573852e+01 5.470107373962740382e+01 5.516793545938274690e+01 5.564097198668076061e+01 5.612022251468950174e+01 5.660572408192409455e+01 5.709751140636535638e+01 5.759561671220505019e+01 5.810006954904030607e+01 5.861089660334835827e+01 5.912812150208173279e+01 5.965176460823570181e+01 6.018184280825283139e+01
8.609855188974464113e+00 8.694196659793629323e+00 8.781546023724679628e+00 8.872021691667557164e+00 8.965749103501481798e+00 9.062861233394912119e+00 9.163499140081736272e+00 8.889838535815604459e+00 8.982525482442525799e+00 9.078550689968771792e+00 9.178051896098789797e+00 9.281175261780662211e+00 9.388076001021136818e+00 9.498919068797777143e+00 9.613879913389389742e+00 9.733145300245450215e+00 9.856914215430579773e+00 9.985398857729633093e+00 1.011882572970541183e+01 1.025743683939050221e+01 1.040149102589908026e+01 1.055126542410059010e+01 1.070705708565069258e+01 1.086918477617852119e+01 1.103799097134859153e+01 1.121384407792798044e+01 1.139714090998931439e+01 1.158830945508256427e+01 1.178781197075230303e+01 1.199614845833452037e+01 1.221386056874634995e+01 1.244153600424328410e+01 1.267981349118089263e+01 1.292938841208020229e+01 2.861140139159727624e+01 2.869688205137296677e+01 2.878386621524047939e+01 2.887236339120409667e+01 2.896238320396667731e+01 2.905393539269419989e+01 2.914702980864924697e+01 2.924167641268745754e+01 2.933788527261124912e+01 2.943566656037453200e+01 2.953503054913226933e+01 2.963598761012824312e+01 2.973854820941446064e+01 2.984272290439510300e+01 2.994852234018814130e+01 3.005595724579699990e+01 3.016503843008492680e+01 3.027577677754412377e+01 3.038818324385172076e+01 3.050226885120430254e+01 3.061804468342246111e+01 3.073552188081679049e+01 3.245803158206189210e+01 3.266320281867877640e+01 3.287141833982836658e+01 3.308271307439486719e+01 3.329712220526279509e+01 3.351468115439887185e+01 3.373542556680816062e+01 3.395939129330776041e+01 3.418661437205958009e+01 3.441713100880125609e+01 3.465097755571203919e+01 3.488819048884839447e+01 3.512880638408135781e+01 3.537286189146566784e+01 3.562039370796816229e+01 3.587143854848052626e+01 3.612603311503902148e+01 3.638421406417161563e+01 3.664601797229018132e+01 3.691148129904340891e+01 3.718064034854334921e+01 3.596860629355261807e+01 3.448216536336094862e+01 3.311845214206693555e+01 3.239744934806107324e+01 3.213208188534012066e+01 3.187576950523466834e+01 3.162822135045455596e+01 3.138916149412660417e+01 3.115832808386053188e+01 3.093547254686392733e+01 3.072035885120574505e+01 3.051276281877763097e+01 3.031247148590633600e+01 3.011928250793479123e+01 2.993300360441638830e+01 2.975345204186311676e+01 2.958045415125478073e+01 2.941384487775803080e+01 2.816221184140070832e+01 2.845773387172270574e+01 2.876389399231650756e+01 3.469446529685870217e+01 3.570288937184434985e+01 3.677739430572302837e+01 4.520761367412717391e+01 4.558379995811765184e+01 4.596438690744903965e+01 4.634937900046905668e+01 4.673877806429432269e+01 4.713258312643512227e+01 4.753079026155737097e+01 4.793339243338284206e+01 4.834037933174487023e+01 4.875173720483473971e+01 4.916744868669304935e+01 4.958749262002189795e+01 5.001184387441593060e+01 5.044047316013563886e+01 5.087334683757268294e+01 5.131042672258548976e+01 5.175166988791409750e+01 5.219702846091608706e+01
8.622508481141364811e+00 8.707009029195301508e+00 8.794523862287498162e+00 8.885171692707229951e+00 8.979078282042047832e+00 9.076376948149645685e+00 9.177209117261138971e+00 8.902746711058854956e+00 8.995605215900825513e+00 9.091808965682735888e+00 9.191496041477179801e+00 9.294812971460812534e+00 9.401915362754682093e+00 9.512968591570261978e+00 9.628148558007351809e+00 9.747642512653330371e+00 9.871649963052373522e+00 1.000038366916760246e+01 1.013407073817095672e+01 1.027295383029149711e+01 1.041729248906451311e+01 1.056736461118873294e+01 1.072346807336250585e+01 1.088592253598562820e+01 1.105507144654697882e+01 1.123128426894733245e+01 1.141495896902666551e+01 1.160652479129164227e+01 1.180644536741135298e+01 1.201522220364104676e+01 1.223339860215435948e+01 1.246156408057579590e+01 1.270035936512838504e+01 1.295048204614771237e+01 2.673648735906253648e+01 2.674690827505003199e+01 2.675855281441294764e+01 2.677142240767583203e+01 2.678551863536169009e+01 2.680084322803402230e+01 2.681739806634134382e+01 2.683518518106372142e+01 2.685420675316092698e+01 2.687446511382172432e+01 2.689596274451364977e+01 2.691870227703283192e+01 2.694268649355314693e+01 2.696791832667408073e+01 2.699440085946661583e+01 2.702213732551630088e+01 2.705113110896281015e+01 2.708138574453508696e+01 2.711290491758119714e+01 2.714569246409193326e+01 2.717975237071718198e+01 2.721508877477402422e+01 2.737319959429379068e+01 2.746822299219722652e+01 2.881229560946037438e+01 2.897432782908057192e+01 2.913848384949482195e+01 2.930477977549945123e+01 2.947323158858046810e+01 2.964385512881383988e+01 2.981666607593511742e+01 2.999167992955084472e+01 3.016891198846370870e+01 3.034837732908312447e+01 3.053009078289255029e+01 3.071406691294446034e+01 3.090031998935392465e+01 3.108886396376113836e+01 3.127971244273359375e+01 3.147287866007807011e+01 3.166837544803307125e+01 3.186621520731199553e+01 3.206640987596789927e+01 3.226897089705067145e+01 3.247390918502805590e+01 3.268123509094223778e+01 3.241236350633256080e+01 3.214703091828495474e+01 3.189074976171071896e+01 3.164322946701184591e+01 3.140419437425740767e+01 3.117338287888336623e+01 3.095054663829798258e+01 3.073544983450589640e+01 3.052786848831272337e+01 3.032758982107452184e+01 3.013441166031958929e+01 2.994814188589601400e+01 2.976859791359387586e+01 2.959560621345611509e+01 2.942900186023366516e+01 2.818458254154016274e+01 2.848026080071216271e+01 2.878658105458340799e+01 3.708236538861596188e+01 3.733838306641666094e+01 3.759679918602962090e+01 3.785760004958411429e+01 3.812077020086558576e+01 3.838629235595342237e+01 3.865414733260049474e+01 3.892431397841525609e+01 3.376329485715373124e+01 3.392566712727231959e+01 3.408933667879051654e+01 3.425429343419819617e+01 3.442052661534057734e+01 3.458802472279329976e+01 3.475677551503004281e+01 3.492676598740024474e+01 3.509798235093634133e+01 3.527041001101109430e+01 3.544403354586723509e+01 3.561883668504339795e+01 3.230140569774331993e+01
8.636501558951376722e+00 8.721174531860272694e+00 8.808868662927476834e+00 8.899702985152305956e+00 8.993803602318852342e+00 9.091304197715540880e+00 9.192346588159049148e+00 8.917037252245897605e+00 9.010081960401393530e+00 9.106479430713511292e+00 9.206368110035816343e+00 9.309894917580896490e+00 9.417215878892475800e+00 9.528496818341730901e+00 9.643914116520367230e+00 9.763655539709660047e+00 9.887921149528326126e+00 1.001692430192103878e+01 1.015089274586709323e+01 1.029006983359119332e+01 1.043471585567767868e+01 1.058510951636359643e+01 1.074154956646009573e+01 1.090435661388008448e+01 1.107387513469828377e+01 1.125047571111652367e+01 1.143455752674800863e+01 1.162655115438538367e+01 1.182692167701950048e+01 1.203617218950314260e+01 1.225484773611762179e+01 1.248353974866321714e+01 1.272289106088060606e+01 1.297360158842336908e+01 2.447471293381883228e+01 2.448343446981012406e+01 2.449317939882951833e+01 2.450394868865824449e+01 2.451574340810892849e+01 2.452856472692010570e+01 2.454241391563938990e+01 2.455729234549490414e+01 2.457320148825446537e+01 2.459014291607219960e+01 2.460811830132206879e+01 2.462712941641771280e+01 2.464717813361813015e+01 2.466826642481860432e+01 2.469039636132620075e+01 2.471357011361917699e+01 2.473778995108961709e+01 2.476305824176854742e+01 2.478937745203269571e+01 2.481675014629212583e+01 2.484517898665782099e+01 2.487466673258837346e+01 2.460103065759487251e+01 2.467766206760352432e+01 2.475526784375956169e+01 2.483385008391366000e+01 2.491341080510582984e+01 2.499395193860845410e+01 2.507547532483253860e+01 2.515798270809483483e+01 2.524147573124352206e+01 2.532595593014017510e+01 2.541142472799576524e+01 2.549788342955854148e+01 2.558533321515168169e+01 2.567377513455860338e+01 2.576321010075410101e+01 2.585363888347925609e+01 2.594506210265847557e+01 2.603748022165688525e+01 2.613089354037651191e+01 2.622530218818984693e+01 2.632070611670939542e+01 2.641710509239210225e+01 2.651449868897758222e+01 2.661288627975926246e+01 2.671226702968789013e+01 2.681263988730671954e+01 2.691400357651825104e+01 2.701635658818235086e+01 2.711969717154595472e+01 2.722402332550474213e+01 2.732933278969746027e+01 2.743562303543383507e+01 2.754289125645726699e+01 2.765113435954391363e+01 2.776034895493999244e+01 2.787053134663952747e+01 2.798167752250509466e+01 2.809378314423453205e+01 2.820684353717700432e+01 2.832085368000209868e+01 2.843580819422625794e+01 2.855170133360118356e+01 2.866852697336925715e+01 2.878627859939180667e+01 2.736012011515887821e+01 2.744284189776537985e+01 2.752684757733546306e+01 2.761214339585247757e+01 2.769873561589125899e+01 2.778663051677114382e+01 2.787583439055661216e+01 2.796635353790107104e+01 2.805819426372853798e+01 2.815136287274848925e+01 2.824586566479855776e+01 2.834170893000994340e+01 2.843889894379025307e+01 2.853744196161832036e+01 2.863734421364553384e+01 2.873861189909808544e+01 2.884125118047446890e+01 2.894526817753252246e+01 2.835309379148879572e+01
8.651845182022663394e+00 8.736704061105760033e+00 8.824591458017437162e+00 8.915626746039677641e+00 9.009936391910253306e+00 9.107654466377134383e+00 9.208923200238162465e+00 8.932721142840085449e+00 9.025966843671058726e+00 9.122573362904988770e+00 9.222679535876210366e+00 9.326432696947559720e+00 9.433989315722358882e+00 9.545515692009416853e+00 9.661188715940912886e+00 9.781196700453593351e+00 9.905740294271669910e+00 1.003503348459385691e+01 1.016930469991059560e+01 1.030879802478682450e+01 1.045377454007305040e+01 1.060451380389095100e+01 1.076131549092488093e+01 1.092450121009209951e+01 1.109441652362804653e+01 1.127143319408799016e+01 1.145595168982878498e+01 1.164840398431122637e+01 1.184925669019658656e+01 1.205901457587492764e+01 1.227822451997105269e+01 1.250747996879067792e+01 1.274742597292079438e+01 1.299876489269034963e+01 2.218720077512015365e+01 2.220392879705953959e+01 2.222099049780141655e+01 2.223838478275648711e+01 2.225611052725160732e+01 2.227416657608071304e+01 2.229255174304854847e+01 2.231126481050743848e+01 2.233030452888722905e+01 2.234966961621850245e+01 2.236935875764931936e+01 2.238937060495558384e+01 2.240970377604524089e+01 2.243035685445650884e+01 2.245132838885028193e+01 2.247261689249697980e+01 2.249422084275797573e+01 2.251613868056184842e+01 2.253836880987572400e+01 2.256090959717185385e+01 2.258375937088971241e+01 2.260691642089388864e+01 2.293395713142900760e+01 2.296072566000191628e+01 2.298839254752088124e+01 2.301695988511626823e+01 2.304642982378394578e+01 2.307680457371658633e+01 2.310808640360385624e+01 2.314027763990036846e+01 2.317338066606053815e+01 2.320739792173906935e+01 2.324233190195606724e+01 2.327818515622557172e+01 2.331496028764633621e+01 2.335265995195356936e+01 2.339128685653043149e+01 2.343084375937790043e+01 2.347133346804166365e+01 2.351275883849466197e+01 2.355512277397380672e+01 2.359842822376940319e+01 2.364267818196573501e+01 2.368787568613123540e+01 2.373402381595665034e+01 2.378112569183948466e+01 2.382918447341306489e+01 2.387820335801843896e+01 2.392818557911732569e+01 2.397913440464425960e+01 2.403105313529600551e+01 2.408394510275635980e+01 2.413781366785434557e+01 2.419266221865366973e+01 2.424849416847148476e+01 2.430531295382425938e+01 2.436312203229854845e+01 2.442192488034449127e+01 2.448172499098977184e+01 2.454252587147163567e+01 2.460433104078464339e+01 2.466714402714177723e+01 2.473096836534636367e+01 2.479580759407236101e+01 2.486166525305038988e+01 2.492854488015700198e+01 2.499645000840440545e+01 2.506538416282808512e+01 2.513535085726952545e+01 2.520635359105126838e+01 2.527839584554147123e+01 2.535148108060516847e+01 2.542561273093932783e+01 2.480581257337032497e+01 2.480188794005459130e+01 2.479712691985844586e+01 2.479153119321368592e+01 2.478510273340212677e+01 2.477784380500833095e+01 2.476975696214697109e+01 2.443009351979046784e+01 2.446677140566255204e+01 2.450355801534074018e+01 2.454044826789714762e+01 2.457743701919201129e+01
8.668551196458139430e+00 8.753609607909623946e+00 8.841704389177616363e+00 8.932955273668401475e+00 9.027489112117640602e+00 9.125440385068269933e+00 9.226951761022629483e+00 8.949810485761869217e+00 9.043272125120081384e+00 9.140103184464759778e+00 9.240442910617529648e+00 9.344439077533687410e+00 9.452248624864019177e+00 9.564038355508793998e+00 9.679985698592332710e+00 9.800279545101114209e+00 9.925121164360763970e+00 1.005472521059676794e+01 1.018932083005330824e+01 1.032915288056122094e+01 1.047448327708173821e+01 1.062559247864591683e+01 1.078278113430628160e+01 1.094637190827213935e+01 1.111671150737945091e+01 1.129417293753001594e+01 1.147915801981947048e+01 1.167210020187714292e+01 1.187346770560570519e+01 1.208376705921079619e+01 1.230354706936519626e+01 1.253340329882437842e+01 1.277398312612907638e+01 1.302599147760484577e+01 2.026501611086398569e+01 2.027894919627417281e+01 2.029315830442538271e+01 2.030764241147370441e+01 2.032240046688248469e+01 2.033743139309235559e+01 2.035273408518663985e+01 2.036830741055213423e+01 2.038415020853548398e+01 2.040026129009523359e+01 2.041663943744978837e+01 2.043328340372136509e+01 2.045019191257613755e+01 2.046736365786072653e+01 2.048479730323523285e+01 2.050249148180294867e+01 2.052044479573697444e+01 2.053865581590392964e+01 2.055712308148488887e+01 2.057584509959384889e+01 2.059482034489386493e+01 2.061404725921105907e+01 2.125482874002874212e+01 2.127778422924517443e+01 2.130150590944090183e+01 2.132599515825864245e+01 2.135125338999877087e+01 2.137728205491028532e+01 2.140408263845182901e+01 2.143165666052194496e+01 2.146000567465786446e+01 2.148913126720192679e+01 2.151903505643484138e+01 2.154971869167495058e+01 2.158118385234250169e+01 2.161343224698813614e+01 2.164646561228456179e+01 2.168028571198045995e+01 2.171489433581565009e+01 2.175029329839646763e+01 2.178648443803032109e+01 2.182346961551829168e+01 2.186125071290480193e+01 2.189982963218305656e+01 2.193920829395523242e+01 2.197938863604614212e+01 2.202037261206923802e+01 2.206216218994364198e+01 2.210475935036097894e+01 2.214816608520074581e+01 2.219238439589283018e+01 2.223741629172589285e+01 2.228326378810026398e+01 2.232992890472385739e+01 2.237741366374980956e+01 2.242572008785435145e+01 2.247485019825341013e+01 2.252480601265648730e+01 2.257558954315636512e+01 2.195413551815234854e+01 2.196024857401977926e+01 2.196571129412821577e+01 2.197052188198308187e+01 2.197467875393406089e+01 2.197818054031322532e+01 2.198102608642084732e+01 2.170734126181235624e+01 2.173581117422235565e+01 2.176441553139126128e+01 2.179315077560225689e+01 2.182201330117876736e+01 2.185099945442203406e+01 2.188010553356667032e+01 2.190932778875475506e+01 2.193866242202900807e+01 2.196810558734554064e+01 2.199765339060681058e+01 2.202730188971517933e+01 2.205704709464774638e+01 2.208688496755295105e+01 2.211681142286937884e+01 2.214682232746748625e+01 2.217691350081461721e+01 2.220708071516387960e+01 2.223731969576747147e+01
8.686632557417723888e+00 8.771904283762355092e+00 8.860220730418628676e+00 8.951702011045391316e+00 9.046475381726178711e+00 9.144675755460783151e+00 9.246446262528314364e+00 8.968318526434337912e+00 9.062011219189425759e+00 9.159082485625438252e+00 9.259672007384807557e+00 9.363928022807053608e+00 9.472007967952238872e+00 9.584079176866383776e+00 9.700319647546921331e+00 9.820918880884979885e+00 9.946078800798431985e+00 1.007601476484449776e+01 1.021095667583681177e+01 1.035115020641563355e+01 1.049685815016443868e+01 1.064836191476930516e+01 1.080596317492618752e+01 1.096998570526992900e+01 1.114077741659494336e+01 1.131871262214083096e+01 1.150419456482418212e+01 1.169765824112897334e+01 1.189957356306589276e+01 1.211044890635282378e+01 1.233083510097066515e+01 1.256132992977853746e+01 1.280258321226103035e+01 1.305530256413935142e+01 1.865191894468747691e+01 1.866370184901182583e+01 1.867571682597987959e+01 1.868796293057135216e+01 1.870043919409102173e+01 1.871314462392363609e+01 1.872607820328565964e+01 1.873923889097407880e+01 1.875262562111228704e+01 1.876623730289329472e+01 1.878007282032028513e+01 1.879413103194474033e+01 1.880841077060225075e+01 1.882291084314615404e+01 1.883763003017915594e+01 1.885256708578308604e+01 1.886772073724696241e+01 1.888308968479352856e+01 1.889867260130439774e+01 1.891446813204405686e+01 1.893047489438280095e+01 1.894669147751889327e+01 1.980758330914270360e+01 1.982748444186582759e+01 1.984804667479102491e+01 1.986927089284979431e+01 1.989115800209344798e+01 1.991370892900413025e+01 1.993692461977857988e+01 1.996080603958390753e+01 1.998535417178490192e+01 2.001057001714228178e+01 2.003645459298118681e+01 2.006300893232936033e+01 2.009023408302430980e+01 1.944513140382641936e+01 1.946181574058162056e+01 1.947805383335452234e+01 1.949384092420375225e+01 1.950917236999237758e+01 1.952404364520273461e+01 1.953845034469758346e+01 1.955238818642444798e+01 1.956585301406015631e+01 1.937389498527938869e+01 1.939464591909631963e+01 1.941556144278345641e+01 1.943663931788876198e+01 1.945787727077970786e+01 1.947927299243703203e+01 1.950082413825510486e+01 1.952252832784935777e+01 1.954438314487104478e+01 1.956638613682964234e+01 1.958853481492333870e+01 1.961082665387784019e+01 1.963325909179397044e+01 1.965582953000429001e+01 1.967853533293918744e+01 1.970137382800280790e+01 1.972434230545910694e+01 1.974743801832847012e+01 1.977065818229525007e+01 1.979399997562658697e+01 1.981746053910287841e+01 1.984103697596032134e+01 1.986472635184586721e+01 1.988852569478495980e+01 1.991243199516248552e+01 1.993644220571728454e+01 1.996055324155061683e+01 1.998476198014896354e+01 2.000906526142155784e+01 2.003345988775301478e+01 2.005794262407145112e+01 2.008251019793248915e+01 2.010715929961948589e+01 2.013188658226042094e+01 2.015668866196176623e+01 2.018156211795976063e+01 2.020650349278939473e+01 2.023150929247156071e+01 2.025657598671863369e+01 2.028170000915892501e+01 2.030687775758029900e+01
8.706103353961431424e+00 8.791602345814336417e+00 8.880154913605061040e+00 8.971881571678052225e+00 9.066910003139788898e+00 9.165375576455851103e+00 9.267421908125152541e+00 8.988259678163588617e+00 9.082198721059597801e+00 9.179526050695168138e+00 9.280381807215071888e+00 9.384914718506651710e+00 9.493282743798815204e+00 9.605653776763430685e+00 9.722206414608352887e+00 9.843130800473863573e+00 9.968629547386688827e+00 1.009891875310610310e+01 1.023422911643944744e+01 1.037480716703582750e+01 1.052091662232027680e+01 1.067283988714438081e+01 1.083087971395036853e+01 1.099536104382887203e+01 1.116663305186387412e+01 1.134507142368179800e+01 1.153108089425384186e+01 1.172509808486038274e+01 1.192759467985837851e+01 1.213908099167564281e+01 1.236010997050706806e+01 1.259128172477735674e+01 1.283324862989548087e+01 1.308672111657326020e+01 1.727910291574231394e+01 1.728919629191241825e+01 1.729948747572318268e+01 1.730997560016447778e+01 1.732065977717901362e+01 1.733153909747863253e+01 1.734261263035854128e+01 1.735387942350962831e+01 1.736533850282895841e+01 1.737698887222854438e+01 1.738882951344254124e+01 1.740085938583300162e+01 1.741307742619424559e+01 1.742548254855604384e+01 1.743807364398572446e+01 1.745084958038933109e+01 1.746380920231194978e+01 1.747695133073741403e+01 1.749027476288745930e+01 1.750377827202051151e+01 1.751746060723026233e+01 1.753132049324416997e+01 1.754535663022209135e+01 1.755956769355511327e+01 1.757395233366487020e+01 1.758850917580342710e+01 1.760323681985394018e+01 1.761813384013225559e+01 1.763319878518966277e+01 1.764843017761694455e+01 1.766382651384992286e+01 1.767938626397673119e+01 1.769510787154694498e+01 1.771098975338283310e+01 1.772703029939288299e+01 1.774322787238783761e+01 1.775958080789945726e+01 1.777608741400218761e+01 1.779274597113799317e+01 1.780955473194454086e+01 1.782651192108700400e+01 1.784361573509365684e+01 1.786086434219553354e+01 1.787825588217039297e+01 1.789578846619118480e+01 1.791346017667930823e+01 1.793126906716285873e+01 1.794921316214017892e+01 1.796729045694886651e+01 1.798549891764061215e+01 1.800383648086201305e+01 1.802230105374171742e+01 1.804089051378404918e+01 1.805960270876953899e+01 1.807843545666245078e+01 1.809738654552569770e+01 1.811645373344339660e+01 1.813563474845125256e+01 1.815492728847521064e+01 1.817432902127846006e+01 1.819383758441723486e+01 1.821345058520558524e+01 1.823316560068945691e+01 1.825298017763032732e+01 1.827289183249871840e+01 1.829289805147780967e+01 1.831299629047752120e+01 1.833318397515927600e+01 1.835345850097173326e+01 1.837381723319786175e+01 1.839425750701349571e+01 1.841477662755778866e+01 1.843537187001576072e+01 1.845604047971324846e+01 1.847677967222455209e+01 1.849758663349302168e+01 1.851845851996489500e+01 1.853939245873661790e+01 1.856038554771594562e+01 1.858143485579709520e+01 1.860253742305017255e+01 1.862369026092519064e+01 1.864489035247086335e+01 1.866613465256850546e+01 1.868742008818120937e+01
8.726978836253039162e+00 8.812719224409265806e+00 8.901522556331741498e+00 8.993509767807132960e+00 9.088808990984979630e+00 9.187556073173844595e+00 9.289895141928855793e+00 9.009649549945793368e+00 9.103850434813912429e+00 9.201449886591488436e+00 9.302588527976812571e+00 9.407415601963601048e+00 9.516089618131433170e+00 9.628779058710186689e+00 9.745663150939746444e+00 9.866932713073513384e+00 9.992791082321437202e+00 1.012345513411470854e+01 1.025915640332387646e+01 1.040014231950155654e+01 1.054667756988373029e+01 1.069904560580828878e+01 1.085755031044313412e+01 1.102251784831453740e+01 1.119429872015738425e+01 1.137327005015336034e+01 1.155983813678023964e+01 1.175444130338467019e+01 1.195755309035851077e+01 1.216968583762394474e+01 1.239139471423500893e+01 1.262328226155406519e+01 1.286600352799721314e+01 1.312027188718044357e+01 1.609677440638179391e+01 1.610551611682528161e+01 1.611442840653096908e+01 1.612351048183744950e+01 1.613276153030539817e+01 1.614218072057900955e+01 1.615176720224615181e+01 1.616152010569726372e+01 1.617143854198318920e+01 1.618152160267198170e+01 1.619176835970476702e+01 1.620217786525086368e+01 1.621274915156215712e+01 1.622348123082691274e+01 1.623437309502309844e+01 1.624542371577138056e+01 1.625663204418787444e+01 1.626799701073673177e+01 1.627951752508282013e+01 1.629119247594445952e+01 1.630302073094647852e+01 1.631500113647362937e+01 1.632713251752456785e+01 1.633941367756646201e+01 1.635184339839044299e+01 1.636442043996801488e+01 1.637714354030851993e+01 1.639001141531788974e+01 1.640302275865878556e+01 1.641617624161229116e+01 1.642947051294130389e+01 1.644290419875580866e+01 1.645647590238018410e+01 1.647018420422269713e+01 1.648402766164735311e+01 1.649800480884831444e+01 1.651211415672698024e+01 1.652635419277198991e+01 1.654072338094224648e+01 1.655522016155322618e+01 1.656984295116667028e+01 1.658459014248390417e+01 1.659946010424296148e+01 1.661445118111966934e+01 1.662956169363293313e+01 1.664478993805438023e+01 1.666013418632258336e+01 1.667559268596204092e+01 1.669116366000712404e+01 1.670684530693121062e+01 1.672263580058114840e+01 1.673853329011735980e+01 1.675453589995968073e+01 1.677064172973920719e+01 1.678684885425635898e+01 1.680315532344534546e+01 1.681955916234526072e+01 1.683605837107802827e+01 1.685265092483338378e+01 1.686933477386114788e+01 1.688610784347097393e+01 1.690296803403978032e+01 1.691991322102715500e+01 1.693694125499882119e+01 1.695404996165851585e+01 1.697123714188839472e+01 1.698850057179824802e+01 1.700583800278369750e+01 1.702324716159361273e+01 1.704072575040694204e+01 1.705827144691922115e+01 1.707588190443886944e+01 1.709355475199361862e+01 1.711128759444714120e+01 1.712907801262620211e+01 1.714692356345847557e+01 1.716482178012121906e+01 1.718277017220105662e+01 1.720076622586503134e+01 1.721880740404309762e+01 1.723689114662230182e+01 1.725501487065279349e+01 1.727317597056584830e+01 1.729137181840410875e+01 1.730959976406419898e+01
8.749275445223620551e+00 8.835271553104199427e+00 8.924340492314431827e+00 9.016603641182859619e+00 9.112189603287909279e+00 9.211234728548566508e+00 8.941302901709583750e+00 9.032504976802133712e+00 9.126983404158833579e+00 9.224871253962525941e+00 9.326309655908257668e+00 9.431448394073443708e+00 9.540446556017935009e+00 9.653473241940888627e+00 9.770708340449120399e+00 9.892343378323520398e+00 1.001858245262248026e+01 1.014964325455396832e+01 1.028575819580447082e+01 1.042717564946079101e+01 1.057416131933315917e+01 1.072699975342398560e+01 1.088599601953358054e+01 1.105147756360806710e+01 1.122379627448393258e+01 1.140333078224998786e+01 1.159048902163014994e+01 1.178571109671058892e+01 1.198947248913881225e+01 1.220228765879159383e+01 1.242471409406359939e+01 1.265735687864323467e+01 1.290087385325488079e+01 1.315598146477830888e+01 1.506800987893354460e+01 1.507565334192324258e+01 1.508344539059493528e+01 1.509138529853776767e+01 1.509947232251898264e+01 1.510770570237905197e+01 1.511608466092599379e+01 1.512460840382901139e+01 1.513327611951146956e+01 1.514208697904336276e+01 1.515104013603330202e+01 1.516013472652017846e+01 1.516936986886452843e+01 1.517874466363975827e+01 1.518825819352326434e+01 1.519790952318760091e+01 1.520769769919179026e+01 1.521762174987281924e+01 1.522768068523752127e+01 1.523787349685488124e+01 1.524819915774890156e+01 1.525865662229213449e+01 1.526924482609999600e+01 1.527996268592599627e+01 1.529080909955795775e+01 1.530178294571540398e+01 1.531288308394818820e+01 1.532410835453651288e+01 1.533545757839246981e+01 1.534692955696321448e+01 1.535852307213592383e+01 1.537023688614463879e+01 1.538206974147918160e+01 1.539402036079620473e+01 1.540608744683261833e+01 1.541826968232140516e+01 1.543056572991009823e+01 1.544297423208196030e+01 1.545549381108006770e+01 1.546812306883445309e+01 1.548086058689238875e+01 1.549370492635206098e+01 1.550665462779970838e+01 1.551970821125041056e+01 1.553286417609267644e+01 1.554612100103700811e+01 1.555947714406856797e+01 1.557293104240413228e+01 1.558648111245347323e+01 1.560012574978536470e+01 1.561386332909833996e+01 1.562769220419636618e+01 1.564161070796964559e+01 1.565561715238065510e+01 1.566970982845561622e+01 1.568388700628157473e+01 1.569814693500921621e+01 1.571248784286165545e+01 1.572690793714928148e+01 1.574140540429089441e+01 1.575597840984129228e+01 1.577062509852543037e+01 1.578534359427938938e+01 1.580013200029826237e+01 1.581498839909117571e+01 1.582991085254356101e+01 1.584489740198690022e+01 1.585994606827604692e+01 1.587505485187436882e+01 1.589022173294677742e+01 1.590544467146089502e+01 1.592072160729645702e+01 1.593605046036314654e+01 1.595142913072700708e+01 1.596685549874556465e+01 1.598232742521186189e+01 1.599784275150749302e+01 1.601339929976484555e+01 1.602899487303864490e+01 1.604462725548699709e+01 1.606029421256198120e+01 1.607599349121005616e+01 1.609172282008225352e+01 1.610747990975446342e+01 1.612326245295776062e+01
8.773010844804050024e+00 8.859277201286712256e+00 8.948626804406856650e+00 9.041181496497710413e+00 9.137070375339572337e+00 9.236430317642314591e+00 8.965359452770970350e+00 9.056844052753177721e+00 9.151615945814377540e+00 9.249808701010024947e+00 9.351563979890464395e+00 9.457032134037646642e+00 9.566372857095364779e+00 9.679755897150592148e+00 9.797361836055264561e+00 9.919382943114596785e+00 1.004602411152582242e+01 1.017750388705028897e+01 1.031405559966577279e+01 1.045592861040227461e+01 1.060338968724689401e+01 1.075672452595113882e+01 1.091623943383449458e+01 1.108226319730832543e+01 1.125514915691223194e+01 1.143527751724385411e+01 1.162305792337248178e+01 1.181893234027851669e+01 1.202337827770299405e+01 1.223691240970580907e+01 1.246009464644102849e+01 1.269353272543810363e+01 1.293788740137013349e+01 1.319387832731902321e+01 1.416485016545247611e+01 1.417158917949936203e+01 1.417845876022858498e+01 1.418545824209826378e+01 1.419258694443303526e+01 1.419984417134461019e+01 1.420722921165191188e+01 1.421474133880083635e+01 1.422237981078373714e+01 1.423014387005867754e+01 1.423803274346857073e+01 1.424604564216024194e+01 1.425418176150352600e+01 1.426244028101046446e+01 1.427082036425469624e+01 1.427932115879111485e+01 1.428794179607590387e+01 1.429668139138700589e+01 1.430553904374514751e+01 1.431451383583548953e+01 1.432360483393000727e+01 1.433281108781070401e+01 1.434213163069372854e+01 1.435156547915453196e+01 1.436111163305412575e+01 1.437076907546657978e+01 1.438053677260783836e+01 1.439041367376596803e+01 1.440039871123294724e+01 1.441049080023809559e+01 1.442068883888327768e+01 1.443099170807995080e+01 1.444139827148821986e+01 1.445190737545796367e+01 1.446251784897219750e+01 1.447322850359273261e+01 1.448403813340832258e+01 1.449494551498534101e+01 1.450594940732116811e+01 1.451704855180038223e+01 1.452824167215387519e+01 1.453952747442104609e+01 1.455090464691515351e+01 1.456237186019200713e+01 1.457392776702207549e+01 1.458557100236616222e+01 1.459730018335479329e+01 1.460911390927141973e+01 1.462101076153957813e+01 1.463298930371413853e+01 1.464504808147678716e+01 1.465718562263584701e+01 1.466940043713059083e+01 1.468169101704019219e+01 1.469405583659739456e+01 1.470649335220711329e+01 1.471900200247003276e+01 1.473158020821136205e+01 1.474422637251489832e+01 1.475693888076250460e+01 1.476971610067914575e+01 1.478255638238362479e+01 1.479545805844514206e+01 1.480841944394581233e+01 1.482143883654926064e+01 1.483451451657546905e+01 1.484764474708192949e+01 1.486082777395132126e+01 1.487406182598575377e+01 1.488734511500777735e+01 1.490067583596822232e+01 1.491405216706104575e+01 1.492747226984524822e+01 1.494093428937404333e+01 1.495443635433135121e+01 1.496797657717574559e+01 1.498155305429197526e+01 1.499516386615015762e+01 1.500880707747277576e+01 1.502248073740953949e+01 1.503618287972026835e+01 1.504991152296585533e+01 1.506366467070743376e+01 1.507744031171380605e+01 1.509123642017727818e+01
8.798203956846412765e+00 8.884755309510536492e+00 8.974400860366882782e+00 9.067262937600260031e+00 9.163471156375178950e+00 9.263162944809547383e+00 8.990903450963363852e+00 9.082686166555191676e+00 9.177767685698578148e+00 9.276282100139882303e+00 9.378371628582657493e+00 9.484187217003364978e+00 9.593889193734845833e+00 9.707647985206831365e+00 9.825644898968990404e+00 9.948072981463461417e+00 1.007513795897750519e+01 1.020705927131235136e+01 1.034407120897596855e+01 1.048642416617278528e+01 1.063438602355596707e+01 1.078824367666781647e+01 1.094830472826855150e+01 1.111489936540045242e+01 1.128838244512235534e+01 1.146913581646140479e+01 1.165757091036596726e+01 1.185413163442821549e+01 1.205929761502605224e+01 1.227358783649559371e+01 1.249756473521146916e+01 1.273183881630068193e+01 1.297707387249060496e+01 1.323399289872055817e+01 1.336573569915018034e+01 1.337172099830106475e+01 1.337782191694673628e+01 1.338403784428512289e+01 1.339036815584261397e+01 1.339681221341403550e+01 1.340336936500247589e+01 1.341003894475895208e+01 1.341682027292206669e+01 1.342371265575764205e+01 1.343071538549845734e+01 1.343782774028410643e+01 1.344504898410110449e+01 1.345237836672325749e+01 1.345981512365240462e+01 1.346735847605958902e+01 1.347500763072674879e+01 1.348276177998896941e+01 1.349062010167743786e+01 1.349858175906310365e+01 1.350664590080118543e+01 1.351481166087657826e+01 1.352307815855023598e+01 1.353144449830665508e+01 1.353990976980248284e+01 1.354847304781640105e+01 1.355713339220032054e+01 1.356588984783201290e+01 1.357474144456924670e+01 1.358368719720554019e+01 1.359272610542758564e+01 1.360185715377450322e+01 1.361107931159895124e+01 1.362039153303022765e+01 1.362979275693945524e+01 1.363928190690694997e+01 1.364885789119184345e+01 1.365851960270411070e+01 1.366826591897905807e+01 1.367809570215439585e+01 1.368800779894999486e+01 1.369800104065042667e+01 1.370807424309038858e+01 1.371822620664314663e+01 1.372845571621203753e+01 1.373876154122521598e+01 1.374914243563369531e+01 1.375959713791281125e+01 1.377012437106720633e+01 1.378072284263946656e+01 1.379139124472248490e+01 1.380212825397567578e+01 1.381293253164515811e+01 1.382380272358800610e+01 1.383473746030066920e+01 1.384573535695167834e+01 1.385679501341875053e+01 1.386791501433039997e+01 1.387909392911213580e+01 1.389033031203740798e+01 1.390162270228334940e+01 1.391296962399147219e+01 1.392436958633337696e+01 1.393582108358162586e+01 1.394732259518584350e+01 1.395887258585417534e+01 1.397046950564019951e+01 1.398211179003538440e+01 1.399379786006720927e+01 1.400552612240301720e+01 1.401729496945973708e+01 1.402910277951954754e+01 1.404094791685156096e+01 1.405282873183965719e+01 1.406474356111653101e+01 1.407669072770405272e+01 1.408866854116001832e+01 1.410067529773137984e+01 1.411270928051404994e+01 1.412476875961933409e+01 1.413685199234707390e+01 1.414895722336561690e+01 1.416108268489860045e+01 1.417322659691870257e+01 1.418538716734837912e+01
8.824874998865453790e+00 8.911726327682419679e+00 9.001683351506345687e+00 9.094868906626281557e+00 9.191413149205734712e+00 9.291454083849023604e+00 9.017955375758583969e+00 9.110052040332421441e+00 9.205459598041880298e+00 9.304312687577823482e+00 9.406754110559271354e+00 9.512935434742976426e+00 9.623017652285714263e+00 9.737171898981632268e+00 9.855580241137502640e+00 9.978436537595344547e+00 1.010594738538142678e+01 1.023833315857290316e+01 1.037582915125291194e+01 1.051868683689943040e+01 1.066717525825650981e+01 1.082158256370897043e+01 1.098221770847101375e+01 1.114941234156324867e+01 1.132352290266093853e+01 1.150493295653223846e+01 1.169405579705076370e+01 1.189133735778539247e+01 1.209725947209177122e+01 1.231234353264022552e+01 1.253715460863891451e+01 1.263834682711245527e+01 1.264338491288170374e+01 1.264852769356550866e+01 1.265377464438564914e+01 1.265912522829778908e+01 1.266457889594674135e+01 1.267013508562160951e+01 1.267579322321078905e+01 1.268155272215693685e+01 1.268741298341192802e+01 1.269337339539187148e+01 1.269943333393223561e+01 1.270559216224314625e+01 1.271184923086489782e+01 1.271820387762377180e+01 1.272465542758817492e+01 1.273120319302520365e+01 1.273784647335767595e+01 1.274458455512169053e+01 1.275141671192479542e+01 1.275834220440480848e+01 1.276536028018938751e+01 1.277247017385638372e+01 1.277967110689507280e+01 1.278696228766833620e+01 1.279434291137582491e+01 1.280181216001824573e+01 1.280936920236276677e+01 1.281701319390967875e+01 1.282474327686035309e+01 1.283255858008658201e+01 1.284045821910138230e+01 1.284844129603133034e+01 1.285650689959051718e+01 1.286465410505619289e+01 1.287288197424620328e+01 1.288118955549826339e+01 1.288957588365117779e+01 1.289803998002809493e+01 1.290658085242184150e+01 1.291519749508247727e+01 1.292388888870709351e+01 1.293265400043199698e+01 1.294149178382731513e+01 1.295040117889415754e+01 1.295938111206437782e+01 1.296843049620304811e+01 1.297754823061372775e+01 1.298673320104660966e+01 1.299598427970964565e+01 1.300530032528271818e+01 1.301468018293496698e+01 1.302412268434535392e+01 1.303362664772654256e+01 1.304319087785220610e+01 1.305281416608782941e+01 1.306249529042509749e+01 1.307223301551998595e+01 1.308202609273459771e+01 1.309187326018286690e+01 1.310177324278021516e+01 1.311172475229722778e+01 1.312172648741745640e+01 1.313177713379943867e+01 1.314187536414298307e+01 1.315201983825985899e+01 1.316220920314893839e+01 1.317244209307587965e+01 1.318271712965742992e+01 1.319303292195046851e+01 1.320338806654580388e+01 1.321378114766685918e+01 1.322421073727330310e+01 1.323467539516969183e+01 1.324517366911923055e+01 1.325570409496268276e+01 1.326626519674253935e+01 1.327685548683249372e+01 1.328747346607230817e+01 1.329811762390810870e+01 1.330878643853822219e+01 1.331947837706455395e+01 1.333019189564963547e+01 1.334092543967933153e+01 1.335167744393131883e+01 1.336244633274935900e+01 1.337323052022341408e+01 1.338402841037567192e+01
8.853045524743500039e+00 8.940212056245409045e+00 9.030496334371425959e+00 9.124021726195882920e+00 9.220918952952503744e+00 9.321326621297203019e+00 9.046537066768211233e+00 9.138963771252022639e+00 9.234714047579918983e+00 9.333923106100600720e+00 9.436734357601176626e+00 9.543300019527890754e+00 9.653781777555675347e+00 9.768351508462940203e+00 9.887192071013348738e+00 1.001049817239806927e+01 1.013847731876765046e+01 1.027135085950201798e+01 1.040935513615475649e+01 1.055274274849194072e+01 1.070178395176006170e+01 1.085676820130315967e+01 1.101800586295369477e+01 1.118583011030377783e+01 1.136059903309252306e+01 1.154269798460634888e+01 1.173254220028396411e+01 1.198449732037565241e+01 1.198864756082354077e+01 1.199289357925968957e+01 1.199723493607292468e+01 1.200167118059445492e+01 1.200620185106481941e+01 1.201082647460068209e+01 1.201554456716147712e+01 1.202035563351595293e+01 1.202525916720866483e+01 1.203025465052645160e+01 1.203534155446496712e+01 1.204051933869526181e+01 1.204578745153051678e+01 1.205114532989295384e+01 1.205659239928094095e+01 1.206212807373641915e+01 1.206775175581262083e+01 1.207346283654217167e+01 1.207926069540564029e+01 1.208514470030054255e+01 1.209111420751091437e+01 1.209716856167746357e+01 1.210330709576837371e+01 1.210952913105080775e+01 1.211583397706319332e+01 1.212222093158832692e+01 1.212868928062735208e+01 1.213523829837469137e+01 1.214186724719398924e+01 1.214857537759511175e+01 1.215536192821228312e+01 1.216222612578341966e+01 1.216916718513071949e+01 1.217618430914257743e+01 1.218327668875688907e+01 1.219044350294581669e+01 1.219768391870208113e+01 1.220499709102683106e+01 1.221238216291918555e+01 1.221983826536751749e+01 1.222736451734249741e+01 1.223496002579206099e+01 1.224262388563826320e+01 1.225035517977618404e+01 1.225815297907489843e+01 1.226601634238059901e+01 1.227394431652195195e+01 1.228193593631776181e+01 1.228999022458698320e+01 1.229810619216120671e+01 1.230628283789964605e+01 1.231451914870672226e+01 1.232281409955232476e+01 1.233116665349479568e+01 1.233957576170674386e+01 1.234804036350373480e+01 1.235655938637595597e+01 1.236513174602290732e+01 1.237375634639120570e+01 1.238243207971557602e+01 1.239115782656308618e+01 1.239993245588072668e+01 1.240875482504638150e+01 1.241762377992327337e+01 1.242653815491795832e+01 1.243549677304193146e+01 1.244449844597691879e+01 1.245354197414393482e+01 1.246262614677614522e+01 1.247174974199565156e+01 1.248091152689420191e+01 1.249011025761796212e+01 1.249934467945635497e+01 1.250861352693506312e+01 1.251791552391326512e+01 1.252724938368512753e+01 1.253661380908566692e+01 1.254600749260098880e+01 1.255542911648300297e+01 1.256487735286865082e+01 1.257435086390370138e+01 1.258384830187116954e+01 1.259336830932441842e+01 1.260290951922496916e+01 1.261247055508510506e+01 1.262205003111527546e+01 1.263164655237637568e+01 1.264125871493691555e+01 1.265088510603514571e+01 1.266052430424614172e+01 1.267017487965392952e+01
8.882738468555315237e+00 8.970235690516819460e+00 9.060863275613924017e+00 9.154745144839099069e+00 9.252012609048962943e+00 9.352804903029577233e+00 9.076671768086429282e+00 9.169444876401517064e+00 9.265554834986669874e+00 9.365137451046885886e+00 9.468336771307347632e+00 9.575305691365279870e+00 9.686206620697998204e+00 9.801212209318993729e+00 9.920506142824047302e+00 1.004428401342650901e+01 1.017275427556286971e+01 1.030613929577641663e+01 1.044467650788288537e+01 1.058861968591590674e+01 1.073824034907594616e+01 1.089382931490527007e+01 1.105569841923171381e+01 1.122418242412450873e+01 1.140144389075505771e+01 1.140493447452228359e+01 1.140851267633286525e+01 1.141217811975919361e+01 1.141593041830174471e+01 1.141976917536472946e+01 1.142369398423159588e+01 1.142770442804039632e+01 1.143180007975907131e+01 1.143598050216067818e+01 1.144024524779860741e+01 1.144459385898182013e+01 1.144902586775013731e+01 1.145354079584963003e+01 1.145813815470814845e+01 1.146281744541103187e+01 1.146757815867703023e+01 1.147241977483449737e+01 1.147734176379787208e+01 1.148234358504452857e+01 1.148742468759200008e+01 1.149258450997566072e+01 1.149782248022686026e+01 1.150313801585163276e+01 1.150853052380993979e+01 1.151399940049556747e+01 1.151954403171668950e+01 1.152516379267716573e+01 1.153085804795859204e+01 1.153662615150320470e+01 1.154246744659764445e+01 1.154838126585766389e+01 1.155436693121380465e+01 1.156042375389813159e+01 1.156655103443203814e+01 1.157274806261520972e+01 1.157901411751579523e+01 1.158534846746182545e+01 1.159175037003394770e+01 1.159821907205955327e+01 1.160475380960829028e+01 1.161135380798912209e+01 1.161801828174888307e+01 1.162474643467247404e+01 1.163153745978469722e+01 1.163839053935383561e+01 1.164530484489701223e+01 1.165227953718738796e+01 1.165931376626327065e+01 1.166640667143920140e+01 1.167355738131904808e+01 1.168076501381121091e+01 1.168802867614596863e+01 1.169534746489503974e+01 1.170272046599341920e+01 1.171014675476355826e+01 1.171762539594193875e+01 1.172515544370810581e+01 1.173273594171623380e+01 1.174036592312926608e+01 1.174804441065572114e+01 1.175577041658917388e+01 1.176354294285054536e+01 1.177136098103319384e+01 1.177922351245091015e+01 1.178712950818886540e+01 1.179507792915756959e+01 1.180306772614989086e+01 1.181109783990122430e+01 1.181916720115282615e+01 1.182727473071842539e+01 1.183541933955408965e+01 1.184359992883151413e+01 1.185181539001466078e+01 1.186006460493992520e+01 1.186834644589977472e+01 1.187665977573000831e+01 1.188500344790061192e+01 1.189337630661031220e+01 1.190177718688484809e+01 1.191020491467902254e+01 1.191865830698258755e+01 1.192713617192997866e+01 1.193563730891398400e+01 1.194416050870336221e+01 1.195270455356446071e+01 1.196126821738686807e+01 1.196985026581315736e+01 1.197844945637272573e+01 1.198706453861979604e+01 1.199569425427559821e+01 1.200433733737475350e+01 1.201299251441591132e+01 1.202165850451665996e+01 1.203033401957270776e+01
8.913978191683426644e+00 9.001821868353587774e+00 9.092809100228116392e+00 9.187064385826836599e+00 9.284719650689396531e+00 9.385914784351658824e+00 9.108384175971290020e+00 9.201520341043234907e+00 9.298007245724608794e+00 9.397981319786737231e+00 9.501587273208405904e+00 9.608978708781570788e+00 9.720318790692184407e+00 9.835780975104771784e+00 9.955549809534385730e+00 1.007982180865237609e+01 1.020880641516103005e+01 1.034272705550614191e+01 1.048182230150175265e+01 1.062634715044506706e+01 1.077657443803755477e+01 1.087481140022033088e+01 1.087774193743604378e+01 1.088075296634571920e+01 1.088384416550789702e+01 1.088701520425266267e+01 1.089026574266391911e+01 1.089359543156148646e+01 1.089700391248313061e+01 1.090049081766647809e+01 1.090405577003091331e+01 1.090769838315943829e+01 1.091141826128054326e+01 1.091521499925013572e+01 1.091908818253352287e+01 1.092303738718752193e+01 1.092706217984270189e+01 1.093116211768580470e+01 1.093533674844237069e+01 1.093958561035963051e+01 1.094390823218965281e+01 1.094830413317283124e+01 1.095277282302172850e+01 1.095731380190530935e+01 1.096192656043361424e+01 1.096661057964290009e+01 1.097136533098131750e+01 1.097619027629511557e+01 1.098108486781546489e+01 1.098604854814592358e+01 1.099108075025056230e+01 1.099618089744284433e+01 1.100134840337525688e+01 1.100658267202977036e+01 1.101188309770913065e+01 1.101724906502911239e+01 1.102267994891165515e+01 1.102817511457904587e+01 1.103373391754913158e+01 1.103935570363162100e+01 1.104503980892554083e+01 1.105078555981785904e+01 1.105659227298336766e+01 1.106245925538584451e+01 1.106838580428055252e+01 1.107437120721812107e+01 1.108041474204988397e+01 1.108651567693467577e+01 1.109267327034720196e+01 1.109888677108796173e+01 1.110515541829485997e+01 1.111147844145645536e+01 1.111785506042702032e+01 1.112428448544333115e+01 1.113076591714336416e+01 1.113729854658686413e+01 1.114388155527787205e+01 1.115051411518927260e+01 1.115719538878937378e+01 1.116392452907064303e+01 1.117070067958055901e+01 1.117752297445471399e+01 1.118439053845217579e+01 1.119130248699316432e+01 1.119825792619910843e+01 1.120525595293512389e+01 1.121229565485498014e+01 1.121937611044855920e+01 1.122649638909194003e+01 1.123365555110007108e+01 1.124085264778213578e+01 1.124808672149965538e+01 1.125535680572734343e+01 1.126266192511680941e+01 1.127000109556311003e+01 1.127737332427424555e+01 1.128477760984359968e+01 1.129221294232539385e+01 1.129967830331320400e+01 1.130717266602158055e+01 1.131469499537078960e+01 1.132224424807475316e+01 1.132981937273222783e+01 1.133741930992121461e+01 1.134504299229669932e+01 1.135268934469172919e+01 1.136035728422186430e+01 1.136804572039303984e+01 1.137575355521288678e+01 1.138347968330551474e+01 1.139122299202982980e+01 1.139898236160137124e+01 1.140675666521772591e+01 1.141454476918754679e+01 1.142234553306317224e+01 1.143015780977691165e+01 1.143798044578097794e+01 1.144581228119111316e+01 1.145365214993392300e+01
8.946790533409590296e+00 9.034996721332808178e+00 9.126360243343478729e+00 9.221006199599843356e+00 9.319067155919341872e+00 9.420683683777332007e+00 9.141700490051956507e+00 9.235216670435590913e+00 9.332098102504142290e+00 9.432481864844465491e+00 9.536513358579362887e+00 9.644346923352815182e+00 9.756146509621073548e+00 9.872086413316418785e+00 9.992352079710316914e+00 1.011714098417149188e+01 1.024666359850962394e+01 1.047553065879722212e+01 1.046428089367650038e+01 1.045343538495745506e+01 1.044299332329483221e+01 1.043295392696474266e+01 1.042331644209755126e+01 1.041408014289921091e+01 1.041269931828980866e+01 1.041559234848956628e+01 1.041855782738455538e+01 1.042159543040577674e+01 1.042470482440688961e+01 1.042788566765116620e+01 1.043113760979845850e+01 1.043446029189224511e+01 1.043785334634676509e+01 1.044131639693425129e+01 1.044484905877232706e+01 1.044845093831154514e+01 1.045212163332318056e+01 1.045586073288719042e+01 1.045966781738049889e+01 1.046354245846553610e+01 1.046748421907912352e+01 1.047149265342171631e+01 1.047556730694703298e+01 1.047970771635212195e+01 1.048391340956788120e+01 1.048818390575008053e+01 1.049251871527091140e+01 1.049691733971111063e+01 1.050137927185267372e+01 1.050590399567223265e+01 1.051049098633509615e+01 1.051513971019000238e+01 1.051984962476464602e+01 1.052462017876199063e+01 1.052945081205739797e+01 1.053434095569665807e+01 1.053929003189491631e+01 1.054429745403656149e+01 1.054936262667609626e+01 1.055448494554006444e+01 1.055966379753004247e+01 1.056489856072675515e+01 1.057018860439534258e+01 1.057553328899187228e+01 1.058093196617102905e+01 1.058638397879518145e+01 1.059188866094470605e+01 1.059744533792974508e+01 1.060305332630336039e+01 1.060871193387616174e+01 1.061442045973244497e+01 1.062017819424788634e+01 1.062598441910884262e+01 1.063183840733327656e+01 1.063773942329340727e+01 1.064368672274006222e+01 1.064967955282881640e+01 1.065571715214796988e+01 1.066179875074837824e+01 1.066792357017519777e+01 1.067409082350160610e+01 1.068029971536449452e+01 1.068654944200223511e+01 1.069283919129451732e+01 1.069916814280433925e+01 1.070553546782215371e+01 1.071194032941225593e+01 1.071838188246141854e+01 1.072485927372985159e+01 1.073137164190448090e+01 1.073791811765465454e+01 1.074449782369025463e+01 1.075110987482228708e+01 1.075775337802597953e+01 1.076442743250645151e+01 1.077113112976694254e+01 1.077786355367970117e+01 1.078462378055951199e+01 1.079141087923995457e+01 1.079822391115237323e+01 1.080506193040763918e+01 1.081192398388071929e+01 1.081880911129808354e+01 1.082571634532798299e+01 1.083264471167363396e+01 1.083959322916935797e+01 1.084656090987964561e+01 1.085354675920125977e+01 1.086054977596832138e+01 1.086756895256046285e+01 1.087460327501404755e+01 1.088165172313646956e+01 1.088871327062358496e+01 1.089578688518026794e+01 1.090287152864412690e+01 1.090996615711237716e+01 1.091706972107192009e+01 1.092418116553260710e+01 1.093129943016373140e+01
8.981202865184469530e+00 9.069787929652049385e+00 9.161544705780256592e+00 9.256598920005327358e+00 9.355083804580269558e+00 9.457140640709837953e+00 9.176648468266025205e+00 9.270561945427843398e+00 9.367855821561626328e+00 9.468667850886875570e+00 9.573144154166397968e+00 9.681439838199695558e+00 9.793719671965225970e+00 1.008220783888605965e+01 1.008095765361320595e+01 1.007977525791446816e+01 1.007866078219919359e+01 1.007761434928629463e+01 1.007663607440837694e+01 1.007572606521567593e+01 1.007488442177973731e+01 1.007411123659691121e+01 1.007340659459158871e+01 1.007277057311919677e+01 1.007220324196897110e+01 1.006145208261269985e+01 1.005395068592068419e+01 1.004682092177037411e+01 1.004006230466831262e+01 1.003367437322537192e+01 1.002765669031516538e+01 1.002200884322263441e+01 1.001673044378312838e+01 1.001182112851204487e+01 1.001153460897694458e+01 1.001483256254125997e+01 1.001819342025395443e+01 1.002161679995970900e+01 1.002510231147364372e+01 1.002864955657437740e+01 1.003225812899744618e+01 1.003592761442911652e+01 1.003965759050059425e+01 1.004344762678269021e+01 1.004729728478096362e+01 1.005120611793137364e+01 1.005517367159645126e+01 1.005919948306206280e+01 1.006328308153476314e+01 1.006742398813977601e+01 1.007162171591966171e+01 1.007587576983366517e+01 1.008018564675781192e+01 1.008455083548575892e+01 1.008897081673045903e+01 1.009344506312666212e+01 1.009797303923427947e+01 1.010255420154266659e+01 1.010718799847584570e+01 1.011187387039870877e+01 1.011661124962423486e+01 1.012139956042176259e+01 1.012623821902635690e+01 1.013112663364929489e+01 1.013606420448972045e+01 1.014105032374749982e+01 1.014608437563732046e+01 1.015116573640406017e+01 1.015629377433948122e+01 1.016146784980027640e+01 1.016668731522749525e+01 1.017195151516741802e+01 1.017725978629389338e+01 1.018261145743217355e+01 1.018800584958430377e+01 1.019344227595610519e+01 1.019892004198575641e+01 1.020443844537406797e+01 1.020999677611641765e+01 1.021559431653645866e+01 1.022123034132158992e+01 1.022690411756022399e+01 1.023261490478094160e+01 1.023836195499349166e+01 1.024414451273175786e+01 1.024996181509865423e+01 1.025581309181304412e+01 1.026169756525867705e+01 1.026761445053521449e+01 1.027356295551134124e+01 1.027954228088003497e+01 1.028555162021600822e+01 1.029159016003535321e+01 1.029765707985744783e+01 1.030375155226911410e+01 1.030987274299110545e+01 1.031601981094693343e+01 1.032219190833405342e+01 1.032838818069746267e+01 1.033460776700573724e+01 1.034084979972950968e+01 1.034711340492245668e+01 1.035339770230478607e+01 1.035970180534927998e+01 1.036602482136989423e+01 1.037236585161295466e+01 1.037872399135097723e+01 1.038509832997910820e+01 1.039148795111423773e+01 1.039789193269678513e+01 1.040430934709518240e+01 1.041073926121308979e+01 1.041718073659931143e+01 1.042363282956048920e+01 1.043009459127655525e+01 1.043656506791892546e+01 1.044304330077153153e+01 1.044952832635460638e+01 1.045601917655129576e+01
9.017244148795262149e+00 9.106224780971734489e+00 9.198392113592984032e+00 9.293872524569191995e+00 9.392799939339358417e+00 9.495316377259324980e+00 9.213257485748997055e+00 9.307585882053093229e+00 9.405310472983497760e+00 9.688862609728037256e+00 9.687465552639944022e+00 9.686130240440135708e+00 9.684856823245558743e+00 9.683645444079576947e+00 9.682496238875220484e+00 9.681409336478342453e+00 9.680384858650656454e+00 9.679422920072683567e+00 9.678523628346543006e+00 9.677687083998627315e+00 9.676913380482139004e+00 9.676202604179470868e+00 9.675554834404437088e+00 9.674970143404339140e+00 9.674448596361873598e+00 9.673990251396862305e+00 9.673595159567808466e+00 9.673263364873276871e+00 9.672994904253082282e+00 9.672789807589301958e+00 9.672648097707094550e+00 9.672569790375320053e+00 9.672554894306975015e+00 9.672603411159444775e+00 9.672715335534531889e+00 9.672890654978322900e+00 9.673129349980829517e+00 9.673431393975464587e+00 9.673796753338313792e+00 9.674225387387206609e+00 9.674717248380616752e+00 9.675272281516374306e+00 9.675890424930177147e+00 9.675038609307648585e+00 9.674227892383354899e+00 9.673760361259869711e+00 9.673635986845415147e+00 9.673854761399875102e+00 9.674416698537825710e+00 9.675321833223213375e+00 9.676570221755664392e+00 9.678161941748427921e+00 9.680097092097906142e+00 9.682375792944769799e+00 9.684998185626557898e+00 9.689372969694842297e+00 9.693530760048771455e+00 9.697737223431035503e+00 9.701991847642249311e+00 9.706294113099147580e+00 9.710643492844992508e+00 9.715039452561008204e+00 9.719481450578804527e+00 9.723968937893866737e+00 9.728501358180142944e+00 9.733078147805725777e+00 9.737698735849704690e+00 9.742362544120203083e+00 9.747068987173612697e+00 9.751817472335115866e+00 9.756607399720447660e+00 9.761438162259011619e+00 9.766309145718327756e+00 9.771219728729867882e+00 9.776169282816312034e+00 9.781157172420250845e+00 9.786182754934371175e+00 9.791245380733155201e+00 9.796344393206146250e+00 9.801479128792765394e+00 9.806648917018774725e+00 9.811853080534367777e+00 9.817090935153940379e+00 9.822361789897586348e+00 9.827664947034316256e+00 9.832999702127068531e+00 9.838365344079514685e+00 9.843761155184703071e+00 9.849186411175573141e+00 9.854640381277359751e+00 9.860122328261935465e+00 9.865631508504085545e+00 9.871167172039790216e+00 9.876728562626517771e+00 9.882314917805532062e+00 9.887925468966296094e+00 9.893559441412952182e+00 9.899216054432931955e+00 9.904894521367696214e+00 9.910594049685657936e+00 9.916313841057283085e+00 9.922053091432429639e+00 9.927810991119894624e+00 9.933586724869241991e+00 9.939379471954904233e+00 9.945188406262580827e+00 9.951012696377949496e+00 9.956851505677729364e+00 9.962703992423081800e+00 9.968569309855382699e+00 9.974446606294385731e+00 9.980335025238767699e+00 9.986233705469100386e+00 9.992141781153236479e+00 9.998058381954114893e+00 1.000398263314002634e+01 1.000991365569731606e+01 1.001585056644554150e+01 1.002179247815509378e+01
9.054944998670189094e+00 9.144338233441434483e+00 9.236933781846754954e+00 9.332858699051767459e+00 9.328847278279274846e+00 9.327276645246927345e+00 9.325762136478198627e+00 9.324303925526940873e+00 9.322902179310720072e+00 9.321557058112800220e+00 9.320268715584150598e+00 9.319037298745435294e+00 9.317862947989000943e+00 9.316745797080843161e+00 9.315685973162537437e+00 9.314683596753145167e+00 9.313738781751050411e+00 9.312851635435762887e+00 9.312022258469633940e+00 9.311250744899528087e+00 9.310537182158391545e+00 9.309881651066763908e+00 9.309284225834165483e+00 9.308744974060426003e+00 9.308263956736885447e+00 9.307841228247500709e+00 9.307476836369851014e+00 9.307170822276015443e+00 9.306923220533343866e+00 9.306734059105098211e+00 9.306603359350997806e+00 9.306531136027610174e+00 9.306517397288644133e+00 9.306562144685090132e+00 9.306665373165261101e+00 9.306827071074700086e+00 9.307047220155945766e+00 9.307325795548189618e+00 9.307662765786814063e+00 9.308058092802779626e+00 9.308511731921932153e+00 9.309023631864164372e+00 9.309593734742467319e+00 9.310221976061878735e+00 9.310908284718323102e+00 9.311652582997345107e+00 9.312454786572738286e+00 9.313314804505104405e+00 9.314232539240304476e+00 9.315207886607836940e+00 9.316240735819135921e+00 9.317330969465819734e+00 9.318478463517854138e+00 9.319683087321692483e+00 9.320944703598343040e+00 9.322263168441427439e+00 9.321587920926829085e+00 9.325463247316607251e+00 9.329382799769383894e+00 9.333346094755507139e+00 9.337352641970335654e+00 9.341401944348007191e+00 9.345493498076184125e+00 9.349626792611749337e+00 9.353801310697551941e+00 9.358016528380169063e+00 9.362271915028747671e+00 9.366566933354953051e+00 9.370901039434029300e+00 9.375273682727037539e+00 9.379684306104257629e+00 9.384132345869820924e+00 9.388617231787588224e+00 9.393138387108287191e+00 9.397695228597964245e+00 9.402287166567756316e+00 9.406913604905030368e+00 9.411573941105910279e+00 9.416267566309205250e+00 9.420993865331805495e+00 9.425752216705529207e+00 9.430541992715481214e+00 9.435362559439935737e+00 9.440213276791775243e+00 9.445093498561508483e+00 9.450002572461901451e+00 9.454939840174239052e+00 9.459904637396261862e+00 9.464896293891765566e+00 9.469914133541941226e+00 9.474957474398433277e+00 9.480025628738172117e+00 9.485117903119988370e+00 9.490233598443044372e+00 9.495372010007081087e+00 9.500532427574551519e+00 9.505714135434608636e+00 9.510916412468999326e+00 9.516138532219887480e+00 9.521379762959609749e+00 9.526639367762395949e+00 9.531916604578066554e+00 9.537210726307737474e+00 9.542520980881523229e+00 9.547846611338297151e+00 9.553186855907469521e+00 9.558540948092860035e+00 9.563908116758621958e+00 9.569287586217265940e+00 9.574678576319803014e+00 9.580080302547969495e+00 9.585491976108604817e+00 9.590912804030153893e+00 9.596341989261306438e+00 9.601778730771799886e+00 9.607222223655364601e+00 9.612671659234836241e+00 9.618126225169447707e+00 9.623585105564265163e+00
8.995455790820807707e+00 8.993797302732923882e+00 8.992189992974024548e+00 8.990634048926853694e+00 8.989129651766520013e+00 8.987676976460873490e+00 8.986276191770990351e+00 8.984927460251736164e+00 8.983630938252392895e+00 8.982386775917369448e+00 8.981195117186938859e+00 8.980056099798039426e+00 8.978969855285095392e+00 8.977936508980866037e+00 8.976956180017314324e+00 8.976028981326482636e+00 8.975155019641363197e+00 8.974334395496761374e+00 8.973567203230160771e+00 8.972853530982542125e+00 8.972193460699205758e+00 8.971587068130528309e+00 8.971034422832712352e+00 8.970535588168472074e+00 8.970090621307688750e+00 8.969699573227995160e+00 8.969362488715329818e+00 8.969079406364409479e+00 8.968850358579151916e+00 8.968675371573045396e+00 8.968554465369427575e+00 8.968487653801712867e+00 8.968474944513555869e+00 8.968516338958933076e+00 8.968611832402158868e+00 8.968761413917833991e+00 8.968965066390717666e+00 8.969222766515542844e+00 8.969534484796746199e+00 8.969900185548144833e+00 8.970319826892547255e+00 8.970793360761289748e+00 8.971320732893735439e+00 8.971901882836689879e+00 8.972536743943786419e+00 8.973225243374809423e+00 8.973967302094981946e+00 8.974762834874203676e+00 8.975611750286258683e+00 8.976513950708001843e+00 8.977469332318506190e+00 8.978477785098203157e+00 8.979539192828012162e+00 8.980653433088468418e+00 8.981820377258848964e+00 8.983039890516309356e+00 8.978435556390376604e+00 8.982016801716159904e+00 8.985638794171345367e+00 8.989301082782787944e+00 8.993003210332789266e+00 8.996744713374631885e+00 9.000525122248987486e+00 9.004343961101263005e+00 9.008200747899893557e+00 9.012094994455591035e+00 9.016026206441614121e+00 9.019993883415029501e+00 9.023997518839047771e+00 9.028036600106414511e+00 9.032110608563909793e+00 9.036219019537954367e+00 9.040361302361386464e+00 9.044536920401386126e+00 9.048745331088625221e+00 9.052985985947609393e+00 9.057258330628298992e+00 9.061561804938977005e+00 9.065895842880429711e+00 9.070259872681436519e+00 9.074653316835629369e+00 9.079075592139682627e+00 9.083526109732936504e+00 9.088004275138416688e+00 9.092509488305289267e+00 9.097041143652802475e+00 9.101598630115685040e+00 9.106181331191081085e+00 9.110788624986998485e+00 9.115419884272311535e+00 9.120074476528346352e+00 9.124751764002043686e+00 9.129451103760764852e+00 9.134171847748705275e+00 9.138913342844972476e+00 9.143674930923344490e+00 9.148455948913715829e+00 9.153255728865243412e+00 9.158073598011247540e+00 9.162908878835823501e+00 9.167760889142240188e+00 9.172628942123097318e+00 9.177512346432296297e+00 9.182410406258789237e+00 9.187322421402162931e+00 9.192247687350052487e+00 9.197185495357407703e+00 9.202135132527589079e+00 9.207095881895359213e+00 9.212067022511728709e+00 9.217047829530690350e+00 9.222037574297859308e+00 9.227035524440989178e+00 9.232040943962410040e+00 9.237053093333368992e+00 9.242071229590290926e+00 9.247094606432941788e+00 9.252122474324536938e+00 9.257154080593746670e+00
8.680412433446887732e+00 8.678874317190674148e+00 8.677383643711699790e+00 8.675940588779019080e+00 8.674545322350384779e+00 8.673198008571452178e+00 8.671898805775123620e+00 8.670647866481004939e+00 8.669445337394954265e+00 8.668291359408737407e+00 8.667186067599761401e+00 8.666129591230898654e+00 8.665122053750353714e+00 8.664163572791617085e+00 8.663254260173465227e+00 8.662394221899992530e+00 8.661583558160696583e+00 8.660822363330598961e+00 8.660110725970373124e+00 8.659448728826520281e+00 8.658836448831527477e+00 8.658273957104064777e+00 8.657761318949173557e+00 8.657298593858451241e+00 8.656885835510246707e+00 8.656523091769827261e+00 8.656210404689559823e+00 8.655947810509060147e+00 8.655735339655333149e+00 8.655573016742890147e+00 8.655460860573850113e+00 8.655398884138019611e+00 8.655387094612942533e+00 8.655425493363937406e+00 8.655514075944088503e+00 8.655652832094249405e+00 8.655841745742979043e+00 8.656080795006486639e+00 8.656369952188539330e+00 8.656709183780350259e+00 8.657098450460448902e+00 8.657537707094535406e+00 8.658026902735318941e+00 8.658565980622332958e+00 8.659154878181766435e+00 8.659793527026264925e+00 8.660481852954742266e+00 8.661219775952188726e+00 8.662007210189504036e+00 8.662844064023309087e+00 8.663730239995814486e+00 8.664665634834678443e+00 8.665650139452923284e+00 8.666683638948859070e+00 8.667766012606080039e+00 8.668897133893478824e+00 8.660908841363150756e+00 8.664227726183105105e+00 8.667584267269766940e+00 8.670978043137335334e+00 8.674408626527688071e+00 8.677875584427177102e+00 8.681378478084276651e+00 8.684916863028075085e+00 8.688490289087665630e+00 8.692098300412434142e+00 8.695740435493293674e+00 8.699416227184832096e+00 8.703125202728479337e+00 8.706866883776626764e+00 8.710640786417799930e+00 8.714446421202842075e+00 8.718283293172172321e+00 8.722150901884123897e+00 8.726048741444394352e+00 8.729976300536604228e+00 8.733933062454026341e+00 8.737918505132466152e+00 8.741932101184346493e+00 8.745973317933998459e+00 8.750041617454179743e+00 8.754136456603863081e+00 8.758257287067284125e+00 8.762403555394291388e+00 8.766574703042012473e+00 8.770770166417847236e+00 8.774989376923823414e+00 8.779231761002332490e+00 8.783496740183229790e+00 8.787783731132385867e+00 8.792092145701634109e+00 8.796421390980182053e+00 8.800770869347479319e+00 8.805139978527579459e+00 8.809528111644976178e+00 8.813934657281990326e+00 8.818358999537638354e+00 8.822800518088095956e+00 8.827258588248684035e+00 8.831732581037437413e+00 8.836221863240277585e+00 8.840725797477754000e+00 8.845243742273426690e+00 8.849775052123854735e+00 8.854319077570220742e+00 8.858875165271602015e+00 8.863442658079909720e+00 8.868020895116455193e+00 8.872609211850232214e+00 8.877206940177833516e+00 8.881813408505092156e+00 8.886427941830394417e+00 8.891049861829673162e+00 8.895678486943140229e+00 8.900313132463685051e+00 8.904953110627003454e+00 8.909597730703421092e+00 8.914246299091425740e+00 8.918898119412920877e+00
8.387910036133503056e+00 8.386479873757519243e+00 8.385093806085075485e+00 8.383751998270344785e+00 8.382454610017193275e+00 8.381201795577446489e+00 8.379993703749313738e+00 8.378830477875927940e+00 8.377712255844043554e+00 8.376639170082833985e+00 8.375611347562799125e+00 8.374628909794800791e+00 8.373691972829165664e+00 8.372800647254903694e+00 8.371955038198985122e+00 8.371155245325716976e+00 8.370401362836178194e+00 8.369693479467711583e+00 8.369031678493492166e+00 8.368416037722139933e+00 8.367846629497368127e+00 8.367323520697702577e+00 8.366846772736220572e+00 8.366416441560323491e+00 8.366032577651559166e+00 8.365695226025451348e+00 8.365404426231366486e+00 8.365160212352407143e+00 8.364962613005312519e+00 8.364811651340382070e+00 8.364707345041427544e+00 8.364649706325719691e+00 8.364638741943963396e+00 8.364674453180283464e+00 8.364756835852215744e+00 8.364885880310726662e+00 8.365061571440225663e+00 8.365283888658607836e+00 8.365552805917303658e+00 8.365868291701344717e+00 8.366230309029445422e+00 8.366638815454113143e+00 8.367093763061763667e+00 8.367595098472877524e+00 8.368142762842170512e+00 8.368736691858803312e+00 8.369376815746615961e+00 8.370063059264406746e+00 8.370795341706250170e+00 8.371573576901861102e+00 8.372397673217010450e+00 8.373267533553995889e+00 8.374183055352176552e+00 8.375144130588569880e+00 8.376150645778524861e+00 8.377202481976485871e+00 8.366290852426526925e+00 8.369374688594268363e+00 8.372493422600898683e+00 8.375646659745342504e+00 8.378833999976349034e+00 8.382055037910197015e+00 8.385309362849183046e+00 8.388596558800918146e+00 8.391916204498457432e+00 8.395267873421268234e+00 8.398651133817070402e+00 8.402065548724554134e+00 8.405510675997021508e+00 8.408986068326926855e+00 8.412491273271378134e+00 8.416025833278601098e+00 8.419589285715380456e+00 8.423181162895502894e+00 8.426800992109225064e+00 8.430448295653780733e+00 8.434122590864944868e+00 8.437823390149674196e+00 8.441550201019854427e+00 8.445302526127139942e+00 8.449079863298956994e+00 8.452881705575627791e+00 8.456707541248684734e+00 8.460556853900362384e+00 8.464429122444288467e+00 8.468323821167414778e+00 8.472240419773159559e+00 8.476178383425823526e+00 8.480137172796265332e+00 8.484116244108882654e+00 8.488115049189859818e+00 8.492133035516769013e+00 8.496169646269484232e+00 8.500224320382441690e+00 8.504296492598266255e+00 8.508385593522774570e+00 8.512491049681351285e+00 8.516612283576735720e+00 8.520748713748227843e+00 8.524899754832285126e+00 8.529064817624607997e+00 8.533243309143609068e+00 8.537434632695385162e+00 8.541638187940126414e+00 8.545853370960010409e+00 8.550079574328581344e+00 8.554316187181598252e+00 8.558562595289407327e+00 8.562818181130792183e+00 8.567082323968341129e+00 8.571354399925342094e+00 8.575633782064159050e+00 8.579919840466169845e+00 8.584211942313192623e+00 8.588509451970463004e+00 8.592811731071117620e+00 8.597118138602215964e+00 8.601428030992288143e+00 8.605740762200397853e+00
8.115660188763813565e+00 8.114327216046845592e+00 8.113035325568958456e+00 8.111784672760622428e+00 8.110575407931644776e+00 8.109407676268682863e+00 8.108281617832913568e+00 8.107197367557866130e+00 8.106155055247388219e+00 8.105154805573775434e+00 8.104196738076010931e+00 8.103280967158147163e+00 8.102407602087797756e+00 8.101576746994750167e+00 8.100788500869679609e+00 8.100042957562962442e+00 8.099340205783589042e+00 8.098680329098169040e+00 8.098063405930005842e+00 8.097489509558275955e+00 8.096958708117265147e+00 8.096471064595675671e+00 8.096026636836013424e+00 8.095625477534026615e+00 8.095267634238215493e+00 8.094953149349390031e+00 8.094682060120284461e+00 8.094454398655226868e+00 8.094270191909862078e+00 8.094129461690910077e+00 8.094032224655986596e+00 8.093978492313457451e+00 8.093968271022339067e+00 8.094001561992248739e+00 8.094078361283395751e+00 8.094198659806611573e+00 8.094362443323428025e+00 8.094569692446196285e+00 8.094820382638248546e+00 8.095114484214121831e+00 8.095451962339806684e+00 8.095832777033056260e+00 8.096256883163746920e+00 8.096724230454293902e+00 8.097234763480113173e+00 8.097788421670150782e+00 8.098385139307481495e+00 8.099024845529951833e+00 8.099707464330908380e+00 8.100432914560004249e+00 8.101201109924058841e+00 8.102011958988033058e+00 8.102865365176064927e+00 8.103761226772611792e+00 8.104699436923686662e+00 8.105679883638195804e+00 8.092236056922937237e+00 8.095108487607909353e+00 8.098013344116706591e+00 8.100950256145301509e+00 8.103918848418341980e+00 8.106918740707445892e+00 8.109949547850266782e+00 8.113010879770296668e+00 8.116102341497462902e+00 8.119223533189490638e+00 8.122374050154103742e+00 8.125553482872023281e+00 8.128761417020832880e+00 8.131997433499693173e+00 8.135261108454933776e+00 8.138552013306545874e+00 8.141869714775580746e+00 8.145213774912475557e+00 8.148583751126333041e+00 8.151979196215158652e+00 8.155399658397069373e+00 8.158844681342507954e+00 8.162313804207473211e+00 8.165806561667745100e+00 8.169322483954205794e+00 8.172861096889162624e+00 8.176421921923797242e+00 8.180004476176664596e+00 8.183608272473318124e+00 8.187232819387050498e+00 8.190877621280760579e+00 8.194542178349983885e+00 8.198225986667067033e+00 8.201928538226532339e+00 8.205649320991627249e+00 8.209387818942069259e+00 8.213143512123016521e+00 8.216915876695264132e+00 8.220704384986660784e+00 8.224508505544800840e+00 8.228327703190974063e+00 8.232161439075357023e+00 8.236009170733535001e+00 8.239870352144272658e+00 8.243744433788609882e+00 8.247630862710257915e+00 8.251529082577320651e+00 8.255438533745321550e+00 8.259358653321598354e+00 8.263288875230996311e+00 8.267228630282939861e+00 8.271177346239829475e+00 8.275134447886808076e+00 8.279099357102891688e+00 8.283071492933434143e+00 8.287050271664002210e+00 8.291035106895568774e+00 8.295025409621114676e+00 8.299020588303582358e+00 8.303020048955197296e+00 8.307023195218169676e+00 8.311029428446754963e+00 8.315038147790684064e+00
7.861674523229349454e+00 7.860429363334947794e+00 7.859222565351024592e+00 7.858054275781267251e+00 7.856924636310454346e+00 7.855833783801359438e+00 7.854781850291822742e+00 7.853768962991989788e+00 7.852795244281720599e+00 7.851860811708156973e+00 7.850965777983421212e+00 7.850110250982485383e+00 7.849294333741157814e+00 7.848518124454202827e+00 7.847781716473599012e+00 7.847085198306901432e+00 7.846428653615730830e+00 7.845812161214364977e+00 7.845235795068443707e+00 7.844699624293773432e+00 7.844203713155216917e+00 7.843748121065698520e+00 7.843332902585281374e+00 7.842958107420337832e+00 7.842623780422807833e+00 7.842329961589526555e+00 7.842076686061643542e+00 7.841863984124113784e+00 7.841691881205254511e+00 7.841560397876387256e+00 7.841469549851545651e+00 7.841419347987253374e+00 7.841409798282366062e+00 7.841440901877994030e+00 7.841512655057485404e+00 7.841625049246470525e+00 7.841778071012994289e+00 7.841971702067694672e+00 7.842205919264070069e+00 7.842480694598805258e+00 7.842795995212171967e+00 7.843151783388505827e+00 7.843548016556759706e+00 7.843984647291124546e+00 7.844461623311742571e+00 7.844978887485495100e+00 7.845536377826880958e+00 7.846134027498973929e+00 7.846771764814485017e+00 7.847449513236909979e+00 7.848167191381780761e+00 7.848924713018021748e+00 7.849721987069406381e+00 7.850558917616143439e+00 7.851435403896557474e+00 7.852351340308917571e+00 7.836708967801766512e+00 7.839390563295800973e+00 7.842102360677806416e+00 7.844844011924634763e+00 7.847615164383006103e+00 7.850415460788213728e+00 7.853244539283508630e+00 7.856102033440205190e+00 7.858987572278501865e+00 7.861900780289058588e+00 7.864841277455314028e+00 7.867808679276592443e+00 7.870802596791978800e+00 7.873822636605015468e+00 7.876868400909194712e+00 7.879939487514309171e+00 7.883035489873623902e+00 7.886155997111930382e+00 7.889300594054470039e+00 7.892468861256743295e+00 7.895660375035236100e+00 7.898874707499058623e+00 7.902111426582527187e+00 7.905370096078683240e+00 7.908650275673781316e+00 7.911951520982759334e+00 7.915273383585686773e+00 7.918615411065223597e+00 7.921977147045097922e+00 7.925358131229600644e+00 7.928757899444133450e+00 7.932175983676811981e+00 7.935611912121117939e+00 7.939065209219649866e+00 7.942535395708949508e+00 7.946021988665431302e+00 7.949524501552427402e+00 7.953042444268344724e+00 7.956575323195959726e+00 7.960122641252858955e+00 7.963683897943010237e+00 7.967258589409524916e+00 7.970846208488548967e+00 7.974446244764365588e+00 7.978058184625656857e+00 7.981681511322963551e+00 7.985315705027349331e+00 7.988960242890247976e+00 7.992614599104546080e+00 7.996278244966854132e+00 7.999950648941013043e+00 8.003631276722813936e+00 8.007319591305952500e+00 8.011015053049201029e+00 8.014717119744819485e+00 8.018425246688199337e+00 8.022138886748740205e+00 8.025857490441959285e+00 8.029580506002835349e+00 8.033307379460394415e+00 8.037037554713515775e+00 8.040770473607977920e+00 8.044505576014730153e+00
7.624217115883687335e+00 7.623051562884946009e+00 7.621921906946497849e+00 7.620828286359502712e+00 7.619770834873085263e+00 7.618749681690745845e+00 7.617764951466949874e+00 7.616816764303904641e+00 7.615905235748503976e+00 7.615030476789448777e+00 7.614192593854519409e+00 7.613391688808022195e+00 7.612627858948362025e+00 7.611901197005783715e+00 7.611211791140246596e+00 7.610559724939424342e+00 7.609945077416851333e+00 7.609367923010188939e+00 7.608828331579610804e+00 7.608326368406316931e+00 7.607862094191149893e+00 7.607435565053333626e+00 7.607046832529314351e+00 7.606695943571708973e+00 7.606382940548353844e+00 7.606107861241462764e+00 7.605870738846863155e+00 7.605671601973353901e+00 7.605510474642130703e+00 7.605387376286328660e+00 7.605302321750636807e+00 7.605255321291015669e+00 7.605246380574491205e+00 7.605275500679055334e+00 7.605342678093640174e+00 7.605447904718181995e+00 7.605591167863786417e+00 7.605772450252967332e+00 7.605991730019982633e+00 7.606248980711264984e+00 7.606544171285932521e+00 7.606877266116407910e+00 7.607248224989118235e+00 7.607657003105301463e+00 7.608103551081907057e+00 7.608587814952600503e+00 7.609109736168870874e+00 7.609669251601242301e+00 7.610266293540602689e+00 7.610900789699639013e+00 7.611572663214390744e+00 7.612281832645929391e+00 7.613028211982152627e+00 7.613811710639716956e+00 7.614632233466103628e+00 7.615489680741811540e+00 7.597934569254811699e+00 7.600443310319610291e+00 7.602980245280424931e+00 7.605545046513605634e+00 7.608137382073743460e+00 7.610756915712560300e+00 7.613403306898462120e+00 7.616076210836757454e+00 7.618775278490557135e+00 7.621500156602365905e+00 7.624250487716388136e+00 7.627025910201555625e+00 7.629826058275286371e+00 7.632650562027994745e+00 7.635499047448366383e+00 7.638371136449404020e+00 7.641266446895270903e+00 7.644184592628922026e+00 7.647125183500567580e+00 7.650087825396949981e+00 7.653072120271468215e+00 7.656077666175157503e+00 7.659104057288524281e+00 7.662150883954279124e+00 7.665217732710935650e+00 7.668304186327330463e+00 7.671409823838046371e+00 7.674534220579765531e+00 7.677676948228562281e+00 7.680837574838135673e+00 7.684015664879009222e+00 7.687210779278691675e+00 7.690422475462827201e+00 7.693650307397328802e+00 7.696893825631513586e+00 7.700152577342246119e+00 7.703426106379098748e+00 7.706713953310550203e+00 7.710015655471197604e+00 7.713330747010036958e+00 7.716658758939776597e+00 7.719999219187221762e+00 7.723351652644720566e+00 7.726715581222679319e+00 7.730090523903162314e+00 7.733475996794576979e+00 7.736871513187443483e+00 7.740276583611261252e+00 7.743690715892482146e+00 7.747113415213575216e+00 7.750544184173207896e+00 7.753982522847532977e+00 7.757427928852589361e+00 7.760879897407815697e+00 7.764337921400681353e+00 7.767801491452434703e+00 7.771270095984966098e+00 7.774743221288789030e+00 7.778220351592138648e+00 7.781700969131183143e+00 7.785184554221348030e+00 7.788670585329752427e+00 7.792158539148745788e+00
7.401765672468912705e+00 7.400672514179732708e+00 7.399613012494230091e+00 7.398587298132662582e+00 7.397595497527868602e+00 7.396637732821278455e+00 7.395714121859131573e+00 7.394824778188866965e+00 7.393969811055714381e+00 7.393149325399448912e+00 7.392363421851325889e+00 7.391612196731178308e+00 7.390895742044677696e+00 7.390214145480754837e+00 7.389567490409162609e+00 7.388955855878200474e+00 7.388379316612575742e+00 7.387837943011402508e+00 7.387331801146338250e+00 7.386860952759858101e+00 7.386425455263649908e+00 7.386025361737138972e+00 7.385660720926139788e+00 7.385331577241619705e+00 7.385037970758587811e+00 7.384779937215093071e+00 7.384557508011343252e+00 7.384370710208929545e+00 7.384219566530161316e+00 7.384104095357511888e+00 7.384024310733177110e+00 7.383980222358723644e+00 7.383971835594863364e+00 7.383999151461321908e+00 7.384062166636807589e+00 7.384160873459100216e+00 7.384295259925231392e+00 7.384465309691776724e+00 7.384671002075254620e+00 7.384912312052628103e+00 7.385189210261918547e+00 7.385501663002926875e+00 7.385849632238066675e+00 7.386233075593306552e+00 7.386651946359232390e+00 7.387106193492226858e+00 7.387595761615755485e+00 7.388120591021793082e+00 7.388680617672358508e+00 7.389275773201188890e+00 7.389905984915537296e+00 7.390571175798105408e+00 7.391271264509117422e+00 7.392006165388536054e+00 7.392775788458417097e+00 7.393580039425425632e+00 7.374357959825356801e+00 7.376709632588781318e+00 7.379087680098964874e+00 7.381491793454148187e+00 7.383921659710381391e+00 7.386376961900483984e+00 7.388857379053606067e+00 7.391362586215432628e+00 7.393892254469026426e+00 7.396446050956313911e+00 7.399023638900242617e+00 7.401624677627620663e+00 7.404248822592631285e+00 7.406895725401059671e+00 7.409565033835225023e+00 7.412256391879642692e+00 7.414969439747416402e+00 7.417703813907380983e+00 7.420459147112000942e+00 7.423235068426047967e+00 7.426031203256044044e+00 7.428847173380515478e+00 7.431682596981033839e+00 7.434537088674082916e+00 7.437410259543742796e+00 7.440301717175219487e+00 7.443211065689204986e+00 7.446137905777105104e+00 7.449081834737131480e+00 7.452042446511263130e+00 7.455019331723097054e+00 7.458012077716590582e+00 7.461020268595712324e+00 7.464043485264993727e+00 7.467081305471010566e+00 7.470133303844784578e+00 7.473199051945130122e+00 7.476278118302934317e+00 7.479370068466393739e+00 7.482474465047211254e+00 7.485590867767742296e+00 7.488718833509131478e+00 7.491857916360412872e+00 7.495007667668589946e+00 7.498167636089712040e+00 7.501337367640933174e+00 7.504516405753571817e+00 7.507704291327164547e+00 7.510900562784528667e+00 7.514104756127831131e+00 7.517316404995656676e+00 7.520535040721093800e+00 7.523760192390835044e+00 7.526991386905288017e+00 7.530228149039693619e+00 7.533470001506272773e+00 7.536716465017371469e+00 7.539967058349636986e+00 7.543221298409182651e+00 7.546478700297785558e+00 7.549738777380076371e+00 7.553001041351740774e+00 7.556265002308716561e+00
7.192979661348653408e+00 7.191952533379843970e+00 7.190957019452833165e+00 7.189993243294672709e+00 7.189061324579629542e+00 7.188161378924904810e+00 7.187293517886542915e+00 7.186457848955527972e+00 7.185654475554085430e+00 7.184883497032156896e+00 7.184145008664053478e+00 7.183439101645291203e+00 7.182765863089591640e+00 7.182125376026048613e+00 7.181517719396452115e+00 7.180942968052780984e+00 7.180401192754838569e+00 7.179892460168039392e+00 7.179416832861348574e+00 7.178974369305360703e+00 7.178565123870513709e+00 7.178189146825451949e+00 7.177846484335514532e+00 7.177537178461355083e+00 7.177261267157700964e+00 7.177018784272227947e+00 7.176809759544576117e+00 7.176634218605470572e+00 7.176492182975984235e+00 7.176383670066910803e+00 7.176308693178258480e+00 7.176267261498873395e+00 7.176259380106164265e+00 7.176285049965968277e+00 7.176344267932515564e+00 7.176437026748519799e+00 7.176563315045390468e+00 7.176723117343559721e+00 7.176916414052927351e+00 7.177143181473431000e+00 7.177403391795732723e+00 7.177697013102029899e+00 7.178024009366988700e+00 7.178384340458808133e+00 7.178777962140397761e+00 7.179204826070702872e+00 7.179664879806145095e+00 7.180158066802202477e+00 7.180684326415128105e+00 7.181243593903805511e+00 7.181835800431741745e+00 7.182460873069210550e+00 7.183118734795545635e+00 7.183809304501580506e+00 7.184532496992240169e+00 7.185288222989307805e+00 7.164611273637561339e+00 7.166819794362877971e+00 7.169053036544382529e+00 7.171310708501975384e+00 7.173592514767602069e+00 7.175898156104152825e+00 7.178227329524949241e+00 7.180579728313813526e+00 7.182955042045747085e+00 7.185352956608225483e+00 7.187773154223104477e+00 7.190215313469176195e+00 7.192679109305359475e+00 7.195164213094551009e+00 7.197670292628146171e+00 7.200197012151227760e+00 7.202744032388450179e+00 7.205311010570617292e+00 7.207897600461967258e+00 7.210503452388182133e+00 7.213128213265113331e+00 7.215771526628253163e+00 7.218433032662953330e+00 7.221112368235392154e+00 7.223809166924318959e+00 7.226523059053560516e+00 7.229253671725325070e+00 7.232000628854287960e+00 7.234763551202487264e+00 7.237542056415017022e+00 7.240335759056556242e+00 7.243144270648705252e+00 7.245967199708171158e+00 7.248804151785780192e+00 7.251654729506352481e+00 7.254518532609420589e+00 7.257395157990814916e+00 7.260284199745119516e+00 7.263185249208994776e+00 7.266097895005390939e+00 7.269021723088639142e+00 7.271956316790431529e+00 7.274901256866709964e+00 7.277856121545436707e+00 7.280820486575284356e+00 7.283793925275227288e+00 7.286776008585045261e+00 7.289766305116738287e+00 7.292764381206866986e+00 7.295769800969804209e+00 7.298782126351906818e+00 7.301800917186623607e+00 7.304825731250502940e+00 7.307856124320151636e+00 7.310891650230091798e+00 7.313931860931560891e+00 7.316976306552227527e+00 7.320024535456821191e+00 7.323076094308695438e+00 7.326130528132300590e+00 7.329187380376568584e+00 7.361055808872910333e+00 7.352913500846633532e+00
6.996673985975667698e+00 6.995707250778957054e+00 6.994770262255455506e+00 6.993863137660281559e+00 6.992985990412457831e+00 6.992138930090397331e+00 6.991322062427562933e+00 6.990535489308355999e+00 6.989779308764172860e+00 6.989053614969665595e+00 6.988358498239182204e+00 6.987694045023387091e+00 6.987060337906055629e+00 6.986457455601048139e+00 6.985885472949441954e+00 6.985344460916833143e+00 6.984834486590805191e+00 6.984355613178540700e+00 6.983907900004603597e+00 6.983491402508863466e+00 6.983106172244568199e+00 6.982752256876572083e+00 6.982429700179695331e+00 6.982138542037239048e+00 6.981878818439621881e+00 6.981650561483180084e+00 6.981453799369071511e+00 6.981288556402343026e+00 6.981154852991113380e+00 6.981052705645897305e+00 6.980982126979052182e+00 6.980943125704366814e+00 6.980935706636765659e+00 6.980959870692153402e+00 6.981015614887385645e+00 6.981102932340363942e+00 6.981221812270266724e+00 6.981372239997904572e+00 6.981554196946209601e+00 6.981767660640850970e+00 6.982012604710984505e+00 6.982288998890135545e+00 6.982596809017215911e+00 6.982935997037671427e+00 6.983306521004772449e+00 6.983708335081039387e+00 6.984141389539813005e+00 6.984605630766957063e+00 6.985101001262721709e+00 6.985627439643741887e+00 6.986184880645193829e+00 6.986773255123096327e+00 6.987392490056777206e+00 6.988042508551496113e+00 6.988723229841229845e+00 6.989434569291620214e+00 6.967486393116086418e+00 6.969564076954787524e+00 6.971664975223002436e+00 6.973788812116974434e+00 6.975935308276841162e+00 6.978104180805402734e+00 6.980295143287417403e+00 6.982507905809481663e+00 6.984742174980459239e+00 6.986997653952495391e+00 6.989274042442616519e+00 6.991571036754924862e+00 6.993888329803397141e+00 6.996225611135307609e+00 6.998582566955261264e+00 7.000958880149877217e+00 7.003354230313095563e+00 7.005768293772160149e+00 7.008200743614238171e+00 7.010651249713726330e+00 7.013119478760230230e+00 7.015605094287229448e+00 7.018107756701441602e+00 7.020627123312885409e+00 7.023162848365661404e+00 7.025714583069455621e+00 7.028281975631755607e+00 7.030864671290825818e+00 7.033462312349403334e+00 7.036074538209162732e+00 7.038700985405922594e+00 7.041341287645634495e+00 7.043995075841126052e+00 7.046661978149629135e+00 7.049341620011097653e+00 7.052033624187303396e+00 7.054737610801734782e+00 7.057453197380297638e+00 7.060179998892817110e+00 7.062917627795354925e+00 7.065665694073335779e+00 7.068423805285503292e+00 7.071191566608691303e+00 7.073968580883424728e+00 7.076754448660357966e+00 7.079548768247530433e+00 7.082351135758477412e+00 7.085161145161169571e+00 7.087978388327789148e+00 7.090802455085361444e+00 7.093632933267214113e+00 7.096469408765289977e+00 7.099311465583306280e+00 7.102158685890747947e+00 7.105010650077711709e+00 7.107866936810596670e+00 7.110727123088627089e+00 7.113590784301224268e+00 7.116457494286211549e+00 7.141641924686399356e+00 7.134250313965158519e+00 7.126757357003851823e+00 7.119164865087882710e+00
6.811797104899983246e+00 6.810885750947230477e+00 6.810002431953463997e+00 6.809147259173268019e+00 6.808320340225641587e+00 6.807521779089296565e+00 6.806751676098141246e+00 6.806010127936988674e+00 6.805297227637448820e+00 6.804613064574006387e+00 6.803957724460302892e+00 6.803331289345590172e+00 6.802733837611368628e+00 6.802165443968203995e+00 6.801626179452712861e+00 6.801116111424721389e+00 6.800635303564591005e+00 6.800183815870704862e+00 6.799761704657116823e+00 6.799369022551362995e+00 6.799005818492418030e+00 6.798672137728815734e+00 6.798368021816917128e+00 6.798093508619321490e+00 6.797848632303436389e+00 6.797633423340181835e+00 6.797447908502844527e+00 6.797292110866074211e+00 6.797166049805014154e+00 6.797069740994587939e+00 6.797003196408906156e+00 6.796966424320824984e+00 6.796959429301638878e+00 6.796982212220909148e+00 6.797034770246434654e+00 6.797117096844353057e+00 6.797229181779385065e+00 6.797371011115217243e+00 6.797542567215016263e+00 6.797743828742092376e+00 6.797974770660694332e+00 6.798235364236944633e+00 6.798525577039925771e+00 6.798845372942898813e+00 6.799194712124673856e+00 6.799573551071125266e+00 6.799981842576850788e+00 6.800419535746986988e+00 6.800886575999173900e+00 6.801382905065671558e+00 6.801908460995640837e+00 6.802463178157575285e+00 6.803046987241900823e+00 6.803659815263737975e+00 6.804301585565837307e+00 6.804972217821676495e+00 6.781912303765987637e+00 6.783870088450733249e+00 6.785849710014458580e+00 6.787850907320151173e+00 6.789873415886696684e+00 6.791916967907438263e+00 6.793981292269241301e+00 6.796066114572095529e+00 6.798171157149244692e+00 6.800296139087870451e+00 6.802440776250310073e+00 6.804604781295861216e+00 6.806787863703125829e+00 6.808989729792962464e+00 6.811210082751997241e+00 6.813448622656749443e+00 6.815705046498349517e+00 6.817979048207866377e+00 6.820270318682260857e+00 6.822578545810958239e+00 6.824903414503056709e+00 6.827244606715180630e+00 6.829601801479979528e+00 6.831974674935283431e+00 6.834362900353921688e+00 6.836766148174216795e+00 6.839184086031149690e+00 6.841616378788211605e+00 6.844062688569950481e+00 6.846522674795204821e+00 6.848995994211056093e+00 6.851482300927472124e+00 6.853981246452678810e+00 6.856492479729251244e+00 6.859015647170918939e+00 6.861550392700119794e+00 6.864096357786277025e+00 6.866653181484815072e+00 6.869220500476934888e+00 6.871797949110118431e+00 6.874385159439399651e+00 6.876981761269389537e+00 6.879587382197049017e+00 6.882201647655243448e+00 6.884824180957044071e+00 6.887454603340806614e+00 6.890092534016011960e+00 6.892737590209890186e+00 6.895389387214797772e+00 6.898047538436385295e+00 6.900711655442527181e+00 6.903381348013033048e+00 6.906056224190126436e+00 6.908735890329702478e+00 6.911419951153357388e+00 6.914108009801181787e+00 6.941960588650058384e+00 6.935349926048760771e+00 6.928639123868441274e+00 6.921829807370928123e+00 6.914923617822516633e+00 6.907922211772533849e+00 6.900827260332377477e+00
